-71.2334116731	41.9982425906	40.8780196087
-69.9687224654	41.9922983907	-29.4678499719
-65.802188524	41.9849682599	-227.749005002
-76.9869924844	41.9734468125	519.829771476
-69.7134175327	41.9831836224	-165.082606889
-69.415373678	41.952549342	-200.850275423
-64.297631398	41.9764798321	-2438.92341847
-78.9807354207	41.9289122969	568.040016934
-76.2777930406	41.9454308152	418.658904555
-74.9414562634	41.9383047297	557.031128325
-74.8677433258	41.9429737366	579.567243573
-70.2322339147	41.9209376908	-31.1899174574
-68.0485629309	41.9388542436	-181.649850736
-64.5127628224	41.9254666641	-2463.46161651
-79.5527248902	41.9150757603	486.57759183
-77.3233567389	41.8750926367	451.119397855
-74.0100861983	41.8776965178	111.150281186
-73.4250400259	41.8667046539	391.141797426
-69.9410655303	41.8743758536	-14.8910424005
-69.4913177665	41.8571469597	-191.414735758
-68.4898854962	41.879953768	-183.958792668
-77.8522937884	41.8384602516	749.200238401
-68.5074013046	41.8360480852	-188.43645069
-75.3240235128	41.8103594816	451.164850798
-69.9268919034	41.7839691824	-7.82338467697
-77.8640018766	41.7642552814	745.20207768
-72.2104997524	41.7544521018	127.878990048
-68.0255465899	41.7660553193	-37.180623266
-78.0449879458	41.7409689388	632.066943113
-75.208587756	41.7413680329	469.091204206
-74.4785644014	41.7339028901	323.224973256
-68.1229238231	41.738329999	-44.4158853053
-79.6318093239	41.6991791202	487.901098849
-76.8038241029	41.707600247	466.94841551
-70.6477157654	41.70511787	-4.64923118423
-67.3160023481	41.7031730934	-44.5920267165
-66.6371350524	41.7047245389	-71.8693680154
-65.2318939945	41.7058741002	-2257.00961505
-64.9416003083	41.7086941561	-2602.47614846
-69.3175863499	41.6563387325	-176.28201364
-73.0458199051	41.648555517	219.513571378
-75.2571371772	41.6019297576	357.697059132
-73.1314893556	41.6096691078	211.903608589
-71.7471267468	41.5688153056	88.3566578976
-65.5419779204	41.5710628515	-2076.00267873
-64.5481263104	41.5825242734	-2990.32410645
-66.8046075417	41.5281247271	-38.728643532
-65.6135501869	41.5428486315	-2283.67433309
-79.5350738464	41.5072580127	453.517921311
-76.5181694536	41.5053367538	447.83360795
-76.3588983102	41.4854621959	589.363840552
-74.0298766317	41.4964487997	56.893143328
-73.0963844923	41.4836689455	196.773352828
-68.0572860036	41.504372779	-23.5247159761
-64.8462068293	41.5134908219	-2997.31548803
-77.9837539708	41.4665717964	632.359752317
-77.2329674425	41.4819961896	474.446200113
-74.4424825732	41.4544849244	198.80893587
-71.932067845	41.465236265	106.42763636
-70.5272108347	41.459583774	-10.7773368536
-69.0191506916	41.4585081523	-147.134741341
-65.8311575734	41.4752979164	-1637.38541155
-71.1736038659	41.4186029767	-22.5645988724
-70.5434166671	41.4457085577	-2.64118849144
-70.2546486362	41.4385791269	-15.8367717263
-68.142122591	41.4324356464	-40.0868192481
-65.7248230734	41.4329031591	-2216.1623586
-79.0691660042	41.4006611851	480.681986856
-74.8380854553	41.3858855215	424.506346782
-70.1281361236	41.405295409	-10.7314886117
-67.2179615364	41.4148664807	-47.8374475518
-76.1608349067	41.3605091941	584.182257206
-73.4624687701	41.3540209044	210.161774791
-71.8924460299	41.3782648963	41.7164824449
-69.0497842455	41.3564034921	-157.72679617
-65.2092357656	41.3594256078	-2847.45841315
-64.8611625884	41.3749359396	-3169.24680131
-72.7600797232	41.3487885815	69.4283269797
-67.4782765449	41.3352453855	-38.3546568997
-75.0912660337	41.2994631377	440.929545858
-73.1033122209	41.3029233698	86.3872600319
-72.7743627321	41.3109241758	23.2496861315
-72.3136814797	41.2927212786	8.49840120102
-69.8147595775	41.2877110761	-27.1466484436
-79.449144907	41.2810007032	433.363878327
-77.8857994144	41.268926974	430.474176641
-75.9745469447	41.2660055008	413.979917438
-65.5002782277	41.2784695287	-2784.16943462
-78.1981808162	41.2402443398	633.833593205
-75.8637165631	41.2281220924	256.888047858
-76.0921399948	41.2011841644	352.224157056
-73.1554036034	41.1997700665	25.4083257841
-69.9422346828	41.198098648	-16.3195261729
-68.5565962887	41.1934985962	-59.791843316
-68.3808930984	41.184676997	-48.8930147272
-75.7536284531	41.1736775298	502.36087269
-66.5398338151	41.1779668551	-95.3879001333
-64.9360380922	41.1687115874	-3424.05218528
-72.2524359414	41.1277905699	-5.89084733845
-70.5634966374	41.1276212293	-39.9181116001
-69.8166921017	41.1373927291	-15.0197969028
-64.7275889743	41.1355154697	-3642.85952089
-79.3283821565	41.0844205167	486.886896258
-78.6599079141	41.0896890234	537.044260214
-78.0390008753	41.0992495413	474.957334551
-75.7624703328	41.0990209687	410.471680576
-72.9219128606	41.1150064502	-22.9057192034
-64.3649894224	41.1010110747	-3830.57126125
-77.2884623545	41.0761370953	565.310939037
-77.1245905893	41.0626289915	509.651966006
-73.3284386961	41.0646397728	-10.73402853
-71.7238134182	41.0734915804	-34.1574708179
-70.2747587665	41.0823989357	-31.501370492
-68.5777012578	41.0689514312	-52.1540567251
-77.0892661275	41.0361221689	474.750082703
-75.9399402644	41.0424067038	350.185393628
-75.7126187737	41.0293410714	416.78482589
-67.2546168208	41.0490444596	-67.9479547645
-66.8204882829	41.0454021502	-72.9524447064
-65.2704376882	41.0300370525	-3190.62816385
-77.2761431696	40.9972730461	522.276727319
-72.5369138459	41.0060389335	11.2511960428
-78.9356748084	40.9583298336	417.810182785
-77.175131938	40.9527848209	538.022361306
-73.5621911779	40.9808751601	-23.0940832574
-77.1878263863	40.9430561769	525.317643583
-68.5105367547	40.9371514092	-37.3307555621
-67.6691207903	40.9359050127	-64.7403932133
-70.250549893	40.8999916943	-39.0491623715
-67.4730329977	40.9125380548	-73.0005374825
-76.3510713635	40.8592576007	385.744710437
-76.0229074266	40.8533451179	397.208249693
-75.9307243433	40.8641917216	490.53727104
-71.1520914692	40.8640666711	-55.523249318
-69.8189587769	40.875308867	-32.9927203965
-67.0443800851	40.8665451253	-88.7865189633
-70.6989028709	40.8429059604	-54.9244137289
-66.9138528346	40.8190077128	-96.7389623758
-71.4249318351	40.808441616	-59.836698367
-68.8249783538	40.7866189809	-65.7627791181
-68.1669328009	40.7881445283	-58.543535818
-66.6350464982	40.7754333833	-845.249759026
-73.8069210396	40.7300002979	23.4969307212
-67.5216384025	40.7379639664	-82.9079359566
-67.0868046745	40.7297394866	-100.579993206
-66.0603089864	40.7423378931	-2946.7128269
-79.2551712092	40.7080261031	394.919429828
-77.3357208955	40.7034802729	239.664418213
-76.6066296681	40.696577906	255.016660094
-76.4602762966	40.6971635701	403.845797044
-73.317815174	40.6860033752	-0.412928339551
-72.7314492132	40.7154590481	-25.2077530068
-69.4111929859	40.7052127489	-45.6862346647
-66.7760754613	40.7052584322	-408.774029104
-66.2195069949	40.7122913891	-2598.64559757
-73.1718131048	40.6598803991	-1.35017721288
-66.0028607557	40.6706292623	-3178.53671073
-76.9837100343	40.6350836524	202.910987261
-76.1971960944	40.6447957636	225.37403655
-78.4529776119	40.6164468893	705.789135913
-68.5878906942	40.6084984944	-64.5491143143
-68.578646893	40.6117418849	-63.5544678295
-79.792883925	40.5637656332	326.620911371
-76.3184765411	40.5590527088	226.985131867
-75.7022468726	40.5779595741	211.953042007
-71.6526619455	40.5820890249	-73.1853410431
-66.079204903	40.5817989477	-3222.82387117
-79.200354911	40.5453145125	365.550811351
-77.3936643067	40.5410664112	155.039086128
-74.2195687044	40.5404771262	21.043597787
-74.1172565865	40.5224439495	-3.15764256543
-73.5596232608	40.5483371422	-13.0345384021
-72.1901194268	40.5447819152	-53.6662577036
-71.4989446213	40.5218933441	-71.6221390477
-70.232486087	40.5233855576	-62.1948436927
-66.8683624504	40.5355079093	-1557.57937965
-65.2940471104	40.5367618494	-3917.84594177
-76.018118171	40.5011234053	128.232088332
-73.9861358078	40.4854187996	-10.9797057113
-72.3404242137	40.4981118136	-50.7729457932
-71.9110086821	40.4963558309	-66.6368787399
-71.4035679881	40.497112944	-69.3109531088
-69.8117488203	40.5113305405	-69.3714925302
-65.9205141672	40.5106713988	-3498.02327058
-76.5269288554	40.479516159	215.905608059
-71.6840370482	40.4702648625	-75.7419363521
-71.5582268348	40.4689299234	-76.9121729201
-70.1124057053	40.4649543494	-69.2101607494
-69.8820434389	40.4545289681	-73.5114017337
-69.5723034765	40.4671576314	-65.3125292544
-67.6131339463	40.4729694829	-141.93622633
-67.3316414446	40.4564845629	-241.653967158
-65.576543317	40.4535234452	-3812.8065301
-66.1936101849	40.4266173907	-3012.92135967
-71.5158322936	40.4037522331	-78.7208349257
-69.5757500928	40.4163562313	-65.6165309071
-65.0885448684	40.4001558043	-4206.3573671
-70.073908764	40.3683030784	-79.7992812019
-69.5055346962	40.3829795897	-68.6954695332
-67.2962278367	40.3666825585	-1199.03203287
-76.0213759597	40.3409903638	95.1289189455
-73.673599352	40.3324686691	-24.2963845206
-73.1388811288	40.3349171646	-36.8479652445
-72.8401033696	40.3241102725	-46.4865333919
-74.8015561154	40.3120035521	62.3199264058
-67.7707523721	40.3035928562	-493.775512718
-65.5736860864	40.28560597	-3948.31514002
-64.596892074	40.3022504106	-4612.12501591
-76.6497130527	40.2612922482	150.286530304
-76.2441062239	40.271480973	204.843776238
-71.7077452353	40.2791242964	-81.2266651268
-64.5959111902	40.2684069268	-4624.99546655
-73.1873683674	40.2068235121	-40.9588814531
-72.8740068045	40.1948210104	-50.8892839815
-68.5176794103	40.2062910079	-466.181903177
-64.1536771507	40.2137027747	-4681.06838796
-77.9526317632	40.1740021734	300.803080088
-73.538918738	40.1809433243	-39.5615374536
-69.1806321615	40.1827258049	-104.539221905
-68.7742448397	40.1589362538	-161.149154898
-65.1441529995	40.159598305	-4411.3900398
-70.5922649608	40.1264142795	-123.176578377
-70.5218797505	40.1336039743	-119.282593328
-69.9837290598	40.1353868871	-112.336578987
-67.6359153705	40.1480085171	-1977.72813554
-67.3372059927	40.1496481924	-2058.84010779
-78.7325567672	40.1068541511	805.921016423
-74.7169949984	40.0854210658	22.5328351974
-71.23775861	40.1047772943	-141.050706451
-76.1001512316	40.0827674745	134.659692218
-74.5725338732	40.0695643751	44.6561937816
-66.6389381749	40.0577650955	-3081.99275839
-78.8960902388	40.0239211572	719.844964969
-78.5732208558	40.0403247653	380.94843002
-69.3756334956	40.0170555702	-104.692177695
-78.8058630297	39.9932974791	644.616481422
-76.6352265387	39.9988771221	142.844519435
-73.7274915547	40.0062123193	-33.0632922781
-73.6219626486	40.0075945398	-32.5252041905
-71.5994139424	40.0057704737	-97.9770855603
-76.5394749476	39.9773233561	145.215046984
-75.0638243011	39.9690222582	13.3572746394
-70.8318228828	39.9295834442	-535.083515479
-66.2058245997	39.9302990874	-3683.12797143
-78.5894473412	39.9134076973	418.757459566
-74.0815858515	39.8977167448	-1.77165761901
-70.4838056893	39.909957963	-776.555299373
-70.2757559075	39.8901755651	-819.475266671
-64.2774385066	39.8996401419	-4817.80099355
-79.5261969639	39.8514205692	538.033191808
-78.6676612192	39.8563357768	701.513580641
-69.952732305	39.8819952225	-651.136016358
-67.8303278181	39.8664345731	-2748.45485151
-67.4336611048	39.8616865007	-1758.07937722
-72.3256326506	39.8245395933	-83.888693143
-71.5221734976	39.8373214667	-536.492873937
-69.7536317286	39.8437006091	-922.288668487
-68.5366690031	39.8187408065	-2434.07179177
-68.2795402055	39.8385149603	-2658.27550337
-65.5929167651	39.8425693912	-4259.41911875
-64.1421655045	39.8303098147	-4871.45916282
-77.8929775645	39.7896786285	173.076103004
-73.6625134766	39.7947143604	-24.5391363447
-72.1843086743	39.8009213124	-90.7603785672
-71.326601762	39.7945710969	-1006.03314532
-66.184728914	39.8020143089	-3570.70460685
-64.291214131	39.7990593229	-4847.47408986
-75.8250688444	39.7547132288	108.359726371
-75.6796468774	39.7627033208	82.9085486518
-74.5062922959	39.7780120809	30.0200896692
-66.999942021	39.7756747817	-3571.61321156
-65.5097599409	39.7652505216	-4384.99833677
-65.0854302054	39.782679188	-4573.09797508
-79.7971614002	39.7402459298	362.250298236
-72.6910492371	39.7476904643	-66.4200565374
-69.9740565671	39.743320777	-1856.24173265
-68.0927125309	39.7399126728	-2849.23914114
-65.0454381858	39.7364089478	-4613.14897133
-76.8270611748	39.708329222	233.912182913
-75.7027841637	39.6977647346	28.6979591172
-72.3333561608	39.6979880658	-107.718414768
-77.5275288436	39.6758890514	454.235135835
-76.4760570212	39.6767331351	151.182069357
-72.5349377582	39.6718535673	-77.9106086533
-68.6181167088	39.6634198975	-2610.26680381
-68.2795415392	39.6609411899	-2802.49176348
-78.7045366311	39.6334352892	422.424315715
-75.5987350473	39.6285501521	-3.63404958508
-74.0527326586	39.6405036848	-18.1823039555
-73.8716971101	39.6373509716	-26.8132209867
-72.265306119	39.619430932	-119.350484231
-68.9698751145	39.6475128036	-2393.28035687
-64.771176793	39.6362379182	-4756.70502746
-72.9940336463	39.6054595586	-64.9358100296
-70.0696985526	39.5653646875	-2357.18488117
-69.9477906925	39.570030662	-2358.3407932
-77.9017963996	39.5208079431	114.566448934
-72.4979533518	39.5245120812	-103.467019189
-69.704530279	39.5183109182	-2354.79639571
-66.9660168751	39.533176149	-3950.66652651
-64.1961413772	39.5367158044	-4867.13967743
-79.0482142191	39.4977406475	379.255519819
-66.8254617168	39.4891121115	-4098.35971699
-79.5227882338	39.461090001	825.967737138
-71.2540636767	39.4813766729	-2470.01495722
-70.8293527844	39.4782407831	-2479.73038382
-70.5514505834	39.452797136	-2553.99591307
-66.7622501863	39.4614348139	-4129.29163017
-79.8777285143	39.4263858783	493.549376391
-79.8265011831	39.432289331	511.791295863
-76.6235158353	39.4380451839	121.045631782
-74.3843674783	39.4483646552	-0.118111197269
-74.3549834687	39.4327341083	-0.99527216516
-72.534308065	39.4474109772	-117.371254126
-69.0345412218	39.4309041302	-2670.66525911
-72.126818385	39.3851005795	-1396.65251788
-71.6248315236	39.3848661694	-2157.77165216
-71.3881404211	39.4114164772	-2462.09483579
-67.9690714795	39.4099324557	-3235.01491411
-77.5421891723	39.36501653	155.445992471
-73.4084724306	39.3671408768	-44.9653532094
-73.0885412512	39.3622343826	-62.2918911372
-70.8210017489	39.3598247642	-2585.52899236
-68.637087094	39.3752282436	-2965.16623446
-66.1958141188	39.3564258206	-4400.92594504
-77.616356707	39.3454670819	150.319310866
-77.5468897808	39.3193204763	148.132268991
-77.2648615973	39.3430531087	172.255358116
-75.5003730932	39.3288593168	0.299345729847
-72.2653364727	39.3320815439	-263.871763398
-68.2864167859	39.3172327007	-3146.38083502
-79.4792349336	39.3140028703	758.96955029
-73.5009671494	39.2927295069	-46.6101273078
-72.8613379266	39.3026883143	-75.0938947986
-72.2700112575	39.2834284405	-375.56016538
-66.3288260039	39.3053258608	-4375.46748157
-64.0024275854	39.3074093299	-4929.76455339
-71.6964208296	39.2778183582	-2222.92644871
-68.8360388152	39.2556812825	-2981.48146771
-65.0951457252	39.2725747737	-4808.92559726
-76.0932718944	39.2280849019	15.7996856218
-72.0741693043	39.2420495996	-1151.7506416
-70.832498494	39.2244889015	-2727.23119445
-70.0036533354	39.2293614546	-2666.57023444
-69.2202158073	39.2289732942	-2902.83826159
-67.4306442605	39.225405241	-3675.44061068
-77.5344163764	39.2158724764	97.689074959
-71.534315083	39.2057160424	-2570.66037418
-71.0001282054	39.2089968981	-2749.41886905
-68.5193022138	39.1941940809	-3207.28957982
-65.2381709522	39.1909440147	-4777.99222139
-65.0389529322	39.1922881851	-4835.45358942
-79.047446623	39.1767221676	385.207812228
-78.7344152922	39.1725284705	521.56238036
-78.2299553595	39.161464999	260.247199985
-72.3196386585	39.1658706577	-809.518646234
-70.4298258379	39.1690513776	-2773.1038805
-65.0939094951	39.1817941839	-4824.35170755
-72.6378488506	39.1329698661	-317.769313092
-72.4211193586	39.1371698068	-821.936375096
-70.7138244615	39.1309058876	-2794.4704064
-65.4877117507	39.0870413022	-4730.94248345
-64.9513638546	39.0944527374	-4865.37923007
-64.1702088193	39.0946113603	-4825.32424354
-78.4569294669	39.081664952	343.162883451
-75.2002528064	39.0789197781	-7.74588419961
-74.7586239701	39.0681273961	-1.11173664662
-73.4801867127	39.0666717016	-53.9855024971
-71.2794686664	39.0621465133	-2807.45969852
-69.9884173227	39.0519240038	-2746.17372994
-69.6209607747	39.0590566681	-2928.45151395
-64.4712566736	39.0583826551	-4952.82099861
-78.6126022481	39.0218659439	540.745088434
-75.2657555022	39.0250440338	-5.33555209493
-72.9079579082	39.0369452522	-89.9659973113
-70.8247838499	39.0196840786	-2821.49611265
-68.6788972787	39.0341957868	-3232.50816384
-79.5017014144	39.001448872	798.619759474
-70.6160616235	39.0152260983	-2833.69985112
-69.3449864561	39.0097106458	-3075.22116717
-79.7671767994	38.9772501835	723.283138261
-77.1947863536	38.9725804091	61.6662455915
-73.8452919693	38.9680212797	-39.3537906124
-72.0522453971	38.954298126	-2448.3077225
-71.1537740338	38.9563316875	-2884.87926697
-68.1766306926	38.9603839167	-3553.75260088
-64.8710426618	38.9771539145	-4877.10591247
-72.8657059115	38.94192748	-150.031583071
-70.8962829816	38.9415487968	-2844.15462219
-66.9306581928	38.9234085851	-4413.60849452
-64.6543866101	38.9459088579	-4947.82175279
-79.2541527372	38.885689164	470.060994026
-78.9554448048	38.8736455351	739.22197396
-72.3537529075	38.855297415	-2400.11238932
-64.6339052173	38.8579604313	-4947.36581946
-79.3236959946	38.849024164	988.399282438
-74.3510294381	38.8437816374	-30.1642410652
-71.7012506387	38.8337605618	-2638.8734854
-77.101393892	38.8033957616	37.2831448304
-71.1838303763	38.7927473508	-3161.94961295
-67.5838291811	38.7999388151	-4144.83626107
-64.9342507724	38.7897829473	-5020.89133239
-74.6920859901	38.7784104072	-24.7702045087
-73.9159669103	38.7747354492	-45.2405644248
-71.5676498672	38.7689568125	-2702.82484233
-74.859726598	38.7422388553	-15.7017538589
-68.1843559538	38.7347830258	-3885.6155775
-76.8614244297	38.6899739712	71.6233758111
-75.2809297197	38.7153130568	15.3246211575
-74.8730614683	38.6904375538	-25.6757434676
-74.2909058827	38.6965376347	-44.3731577715
-67.6216662692	38.7102403588	-4182.77136043
-67.3303287939	38.6974032059	-4313.54804799
-66.8631797744	38.7118078194	-4494.72998692
-64.5246651473	38.692891898	-4984.80290461
-78.9379913727	38.6569500699	399.453451099
-69.656711201	38.6819456167	-3309.05311058
-66.6472296355	38.6783032812	-4555.03474842
-79.8865051791	38.6495126247	1213.54255966
-77.588821939	38.6483427978	66.8711748198
-70.9404669734	38.6438333488	-3115.70715919
-68.6362071953	38.6328099914	-3653.89071918
-74.7710191509	38.5925084411	-24.5203905768
-70.6628531696	38.6098673365	-3007.69184087
-69.6848415237	38.6071047581	-3365.13965553
-67.9871381167	38.6050970688	-4127.57923712
-65.8280712002	38.61062797	-4636.86596467
-70.6492134736	38.5782924763	-2998.42411542
-66.6108791468	38.5504640064	-4613.98252589
-66.3043090786	38.5752376675	-4604.11577604
-64.6642196852	38.560056126	-4987.39785594
-77.7482715686	38.5455511941	88.2345279904
-73.9663132327	38.531768447	-56.9618024573
-73.1785816593	38.5220735392	-1160.92870004
-69.6018138181	38.5445711373	-3444.63570006
-67.9922158513	38.5356494247	-4151.83321525
-78.8575508738	38.514448928	379.635538449
-76.0053848829	38.4867853729	2.06795179626
-75.7898570131	38.4970182127	-1.31043496706
-72.6672924276	38.5022188819	-2611.72746104
-67.1419095561	38.4904128222	-4514.35286539
-75.893725669	38.4601673877	3.93277474808
-70.7601735847	38.4602290152	-3255.04218725
-69.2335992927	38.4695247768	-3544.67402032
-65.7776453205	38.4521017878	-4703.06591949
-75.0279172859	38.4470714761	-10.7178567497
-73.9472687663	38.4490997588	-57.4024078169
-67.6207295822	38.4229465632	-4360.8664184
-64.9746352886	38.4193703776	-4924.72470275
-77.7530597661	38.4129431604	102.365466028
-69.0723118433	38.4034157602	-3634.3941093
-65.846066595	38.3977500817	-4733.70093843
-77.7794618745	38.3687115369	87.0702196184
-77.201323195	38.3685403561	3.84758351596
-77.1047406034	38.3787769696	-5.03755132447
-76.6952950492	38.3579368537	39.4341933908
-74.1931640032	38.3824499344	-53.7022506367
-73.432362993	38.3567223718	-569.969597696
-66.4748608705	38.3611709757	-4671.49407699
-76.1971799639	38.323271813	-2.06820679537
-73.9436467485	38.3459441868	-63.5932818312
-78.8916535596	38.3133421188	356.974587273
-77.6546441082	38.291753648	96.9803371807
-76.8173825353	38.3022874726	0.00851132793448
-65.9767130399	38.3065993471	-4736.13387144
-65.1968050754	38.2949137782	-4904.62994709
-76.073363429	38.2524816153	-0.189137780376
-68.8036657296	38.258420637	-3929.84843509
-65.4684151045	38.2576653828	-4808.08574535
-79.4920875726	38.2190994081	735.633628798
-79.3043678549	38.2353148778	696.688442804
-78.6970873916	38.2357095276	654.688454719
-75.988483144	38.2432464753	-2.88304807832
-75.1307322286	38.2410900464	-3.34260358885
-73.5398488015	38.2216621582	-984.908050766
-72.3999503965	38.2180360426	-2960.09332099
-71.368497308	38.233076701	-3002.9657717
-68.5705078042	38.2394652759	-4116.73805672
-66.4362006199	38.2435111721	-4741.32216678
-66.2642706643	38.2259052378	-4716.03050225
-65.4203809059	38.2206714322	-4846.21764515
-78.3147811584	38.2019681987	165.802302777
-75.6973071153	38.1865767521	0.78295516322
-75.2712109439	38.1840752234	2.60575203045
-74.4380877514	38.193015149	-39.3850301136
-73.939193313	38.1960545872	-77.4480812605
-73.5593328818	38.1838685741	-1284.4021362
-69.243350255	38.2012168673	-3802.80684344
-67.0884413436	38.1843197291	-4680.91843849
-66.3864523556	38.1856594738	-4719.59697799
-65.8796288454	38.1993863304	-4762.71616089
-64.418341987	38.2132497747	-5004.58350302
-72.8497919481	38.1721441467	-2704.78151356
-70.6579260112	38.1610697341	-3433.99170296
-70.1321191891	38.1729909909	-3648.7267222
-68.6295379794	38.1807225478	-4105.55485953
-68.0063778851	38.1584850718	-4415.23157491
-73.6745561555	38.1200463754	-947.663283115
-75.832326522	38.09992061	-0.963964668373
-74.4679608543	38.1146224794	-45.1790322248
-73.8456197799	38.0915366505	-360.424604011
-73.3615360825	38.0917523038	-1962.15578171
-71.6142244821	38.1079438497	-3029.3606503
-71.07377601	38.0889642071	-3182.57008799
-68.8382961475	38.0923544486	-4030.56808899
-68.6817584805	38.0923544933	-4128.53486879
-75.9465700518	38.0739376825	-4.40851421674
-70.0301656006	38.0598326531	-3815.15990906
-68.1520703752	38.0637573917	-4451.39572187
-67.1522768676	38.0780258421	-4627.7712119
-78.2996302612	38.0435097832	130.874674066
-74.4966246907	38.0200890247	-41.9623401832
-74.2054945278	38.0240666177	-69.5553179903
-71.2039231319	38.0237293523	-3211.16918363
-70.5886430473	38.0428898093	-3552.46803987
-70.4398955211	38.0278342571	-3648.7243094
-68.7971479543	38.0221742187	-4105.98763894
-68.193065377	38.0171459597	-4465.95101782
-66.3786726382	38.0195658822	-4818.54538187
-72.3398697043	37.9949154984	-3108.49861104
-70.2011666252	37.964143144	-3848.72966321
-68.2071585302	37.9621576238	-4494.6561595
-79.7980741187	37.9451644141	612.152145803
-78.0624222672	37.9323946889	123.335315687
-75.0763144321	37.9347433615	-20.9462682516
-73.6503403604	37.9206895958	-1559.13575353
-70.3219881385	37.9343304429	-3828.48195609
-64.4061128648	37.94158273	-5024.8335603
-77.6470439051	37.9107861835	78.3242043946
-77.4308646607	37.9018259961	59.853892309
-73.0075594229	37.9113525692	-2573.08843315
-64.4171652423	37.8892346452	-5030.35846545
-64.1588682906	37.9160408359	-5014.9204519
-79.8772913962	37.8737352285	785.100283721
-78.5933577486	37.8637815397	184.412694572
-73.2145460961	37.8509458396	-2265.90729782
-73.1699742196	37.861890668	-2317.62083188
-72.1189039015	37.8556235153	-3168.83582241
-67.4687016101	37.8752968776	-4769.50496396
-66.2402118678	37.8598753344	-4863.70604837
-73.8238919274	37.8447002973	-1352.01819389
-71.9086414538	37.8340575974	-3046.61484184
-66.679589094	37.8251864183	-4855.11312969
-68.6406865067	37.7954721916	-4365.55738124
-64.1113922895	37.790628584	-5026.05377223
-75.1310446687	37.7575366366	-25.4863242666
-74.2957626257	37.7500821854	-96.190859777
-71.6631872764	37.7665618452	-3237.22347304
-69.7784526077	37.7788193281	-4083.37469432
-66.9131222828	37.7555490861	-4867.27891837
-78.3301542096	37.7418952676	114.428204301
-76.0982660931	37.7226434777	-7.99571754364
-71.5722465103	37.7280897627	-3329.74507644
-71.3299433251	37.6867314967	-3607.37951945
-76.5196299388	37.658726761	3.92806010941
-71.1931152303	37.6586018669	-3792.01524787
-64.9192806934	37.661839431	-4998.0940282
-64.8824494783	37.6312896067	-5006.90108671
-67.1547481581	37.6108668091	-4917.39322018
-71.8467964939	37.5704819018	-3247.33291671
-71.7959350309	37.5767341385	-3273.36017276
-71.4877396261	37.5654208267	-3572.6801205
-69.4980801146	37.5512895452	-4205.03180934
-68.1343490873	37.5786519738	-4710.4581034
-65.4069648094	37.5568819212	-4957.30846093
-73.3183298303	37.545859454	-2662.54862456
-71.0433878484	37.5174951197	-4086.35101288
-64.4564059826	37.5424944663	-5030.76755971
-71.906831514	37.4836986044	-3270.4673965
-70.943037081	37.4886245036	-4131.68154623
-69.603526796	37.5035616809	-4219.79041799
-75.3938907885	37.469193367	-22.2926877059
-68.9041737713	37.4582146124	-4482.74911666
-65.3730048618	37.4788921231	-4967.69816121
-71.3821113442	37.4354005286	-3823.03936684
-75.4365972706	37.3854402319	-25.1396614374
-67.5731555091	37.4115205647	-4825.19544953
-66.744050668	37.4005059243	-4962.30483455
-73.3308510451	37.3616488815	-2706.77801377
-73.0956710321	37.3511922785	-2902.00378861
-72.1670733877	37.3541564473	-3306.05153624
-70.6081587032	37.3762826004	-4117.34498921
-68.3173138519	37.3803285413	-4713.49766873
-65.9118555719	37.3656924792	-4982.08052246
-65.382522077	37.3615445361	-4960.30714705
-76.2848999632	37.346658697	0.320077744076
-74.0047569098	37.3182235413	-1845.99238804
-70.9456078592	37.3167584554	-4049.76385371
-66.1416824619	37.3309693538	-4989.39343267
-64.2766915561	37.3213204459	-5037.21976394
-79.6464137657	37.2988141492	283.230209715
-71.1184120956	37.3052218758	-4074.54222512
-70.8132909345	37.3043332488	-4108.90176399
-79.2099176195	37.2756460213	237.892513876
-70.9089806485	37.2518655785	-4101.03174042
-69.1694584662	37.2598431796	-4444.91799253
-79.6166605799	37.2316770196	289.311761561
-79.2373224046	37.2238987848	232.399008041
-72.9533999455	37.2214293905	-2952.65574234
-72.5452822412	37.2487740308	-3052.50604628
-71.8045508898	37.2499987945	-3583.58517187
-71.6135154253	37.2327515498	-3812.0323761
-68.0514648427	37.2301800937	-4858.19735716
-64.5880342278	37.2290890381	-5011.23489642
-73.475460802	37.2075662144	-2609.82695798
-64.0838459582	37.2029707335	-5012.00299125
-79.8471355363	37.1649891227	328.052283256
-76.5768064766	37.1684527673	15.1953571905
-76.138251884	37.1680850699	-8.45784431621
-73.2761598347	37.1694063932	-2818.46921844
-75.2739273213	37.1287085019	-32.0977808054
-71.2477252145	37.1352535426	-4096.03403894
-68.8656734102	37.1465150766	-4599.8280735
-67.9169424791	37.1475548461	-4931.60646117
-72.0220112838	37.0894476078	-3493.48676337
-70.922005217	37.0860552728	-4174.49989216
-70.8903274568	37.093978317	-4186.63750698
-69.055418829	37.0875925883	-4570.14775581
-64.6072302165	37.11445176	-4944.46952366
-79.1128086295	37.0732682436	151.924601269
-79.0763654928	37.0802325136	156.377101665
-78.0819847053	37.070336619	120.367375564
-66.2374378602	37.069058334	-5007.75442545
-79.6140164433	37.0258410736	250.08262504
-79.0750474553	37.0216306872	164.585932333
-76.4113780616	37.0459381989	7.09219292977
-72.4828310499	37.0334942765	-3233.51033681
-67.2655919358	37.0270874291	-4988.27313475
-65.484276802	37.0480073705	-4966.21615502
-78.8230458716	36.9983962527	140.750936097
-77.0089589865	36.9919846258	36.4825400773
-75.3501292296	36.9843522101	-29.1217418712
-65.5251168616	36.9836536399	-4975.23847498
-77.9194248756	36.9670108887	97.2952951
-76.151097132	36.9678921117	-8.21220977079
-74.7234933873	36.9588012858	-84.4585436448
-73.6133288488	36.9577803812	-2773.5923111
-72.7140886675	36.9802596993	-3157.44809602
-69.1229028055	36.9166792049	-4585.23316287
-67.3062086717	36.9325448326	-5002.98834708
-65.2134067645	36.9253291017	-4945.82465096
-78.8582778791	36.9104500948	163.49371574
-76.9914067076	36.8863015151	33.1412963941
-76.1477060822	36.9050332917	8.11629438314
-74.3574642587	36.8962646997	-1871.16615174
-70.0883898167	36.888604091	-4375.91825727
-66.7548798037	36.9048219821	-5011.17626909
-64.9986833488	36.9076561643	-4936.21231251
-71.4603346993	36.8762401393	-4108.20277198
-66.3209105443	36.8778720586	-5026.02574821
-64.8676338423	36.8557109734	-4916.95124806
-68.8762379162	36.8467259718	-4693.20153369
-68.3926619088	36.8242919793	-4840.16628976
-68.3360778412	36.819223964	-4789.21587293
-67.9123074431	36.8199170841	-4950.65636082
-71.756708797	36.7964568263	-4044.12881627
-69.8445842144	36.8021529106	-4424.82476398
-69.6819322508	36.7875268696	-4422.90699626
-69.2143657157	36.7956685996	-4540.46956884
-65.0286648055	36.7932001291	-4945.95854939
-64.3416869493	36.7915812967	-4907.06913439
-75.6015989387	36.7643394111	-21.0115042928
-71.1453619484	36.776683682	-4218.35735929
-77.466926581	36.7202222546	30.6560784044
-73.1224822593	36.732919847	-3234.69442003
-71.9261645414	36.7315509444	-3875.08202203
-79.5718504784	36.6937041593	242.333748051
-79.2264954891	36.7088733216	184.925396274
-78.7144381621	36.7026227688	117.972171973
-70.8153493511	36.7044953605	-4339.32655888
-70.3772228092	36.6931318243	-4404.53657514
-69.4955842744	36.6838428428	-4456.08378392
-66.9926622002	36.6916363699	-5038.94527298
-77.1772747623	36.6672863488	32.5852828757
-67.1271430343	36.6725643886	-5029.03364026
-66.0642071003	36.6647604567	-4967.86878822
-64.9529875149	36.6721827177	-4938.07624428
-79.1947231065	36.6228683417	140.6323749
-78.7437861183	36.6471889292	134.578359466
-76.1156480816	36.6362936025	5.78919609526
-69.1287354031	36.6289962617	-4503.05938721
-68.8414635904	36.6431685549	-4685.60718807
-67.8798407111	36.6267051523	-4972.18536899
-75.3517924526	36.5793072146	-31.5413838647
-70.5636811958	36.576337063	-4408.89596335
-69.9211628316	36.5555206214	-4471.87984079
-69.4698446866	36.5592766528	-4467.13375557
-68.4743452242	36.5828518507	-4827.59414235
-64.5763943794	36.5748126519	-4894.88581346
-73.5942772374	36.5303812225	-2990.88134017
-68.5535086862	36.5260335219	-4729.98043312
-65.7112517141	36.5482186799	-4914.89460755
-74.0059845196	36.5009195071	-2541.55896007
-72.4219478482	36.4899736207	-3674.90752759
-72.1854069346	36.4967917327	-3780.34742278
-70.4471911147	36.5089471277	-4439.24519131
-68.3567331603	36.4977752094	-4845.92004421
-67.2089496866	36.5006427255	-5022.02276583
-79.0180778648	36.4600105707	166.35678023
-78.7388580436	36.4544895042	164.174533179
-73.1019840208	36.4745484863	-3381.57025496
-68.8849021145	36.4747469288	-4557.28373242
-67.9499897826	36.463219804	-4910.94607949
-79.1383142169	36.4439763662	155.989214094
-76.3368238641	36.4372527909	9.54754898905
-72.40270919	36.431230915	-3710.07012332
-79.7631614133	36.4124317851	233.471938409
-78.0051105162	36.4037233453	94.4289834366
-65.9505594605	36.4104496401	-4828.62048643
-65.6402379506	36.4026485395	-4915.98116834
-65.3368839479	36.4148484554	-4943.01269119
-78.2317129738	36.3783077311	112.210165634
-73.5014768585	36.3643676165	-3134.64743672
-69.0085119479	36.3579902623	-4555.50415461
-65.050219812	36.3670415033	-4935.83518122
-78.8575363005	36.3431321393	181.089035113
-74.5363889609	36.3461079385	-1890.75934408
-74.1511954489	36.3464324634	-2391.66555578
-71.9033800847	36.3429505948	-4023.51648266
-64.6934399608	36.331894369	-4952.83537963
-75.2573557847	36.3159409511	-30.928673978
-68.5188685379	36.2893697891	-4610.72331298
-67.7060001063	36.3049114767	-4869.53387503
-66.8709024428	36.2839481133	-5031.70211757
-65.3039226464	36.2850268978	-4907.71491456
-78.5857989036	36.2665459226	120.563989101
-70.8598522054	36.2747986253	-4363.69537846
-68.5065330362	36.282497679	-4611.07565616
-68.0403993968	36.2516030009	-4694.93511959
-65.3906602642	36.2784380514	-4927.19162898
-64.6390925202	36.2667258206	-4958.3494324
-64.5677046331	36.2814311284	-5036.51949536
-74.9866505018	36.2005879107	-40.8688884167
-72.4485749195	36.2129910338	-3807.96360571
-71.9335557334	36.2045685771	-4062.58282655
-69.6379978758	36.2067281912	-4527.98326424
-68.2708714624	36.2122817124	-4674.53916706
-66.280064867	36.170665023	-4994.10763841
-64.942053691	36.1795373159	-4966.13933723
-78.6876752147	36.1215765859	112.701488916
-74.8977598152	36.1360491636	-77.5932623861
-70.7705770539	36.1385375234	-4396.16779686
-68.5586280322	36.1451361152	-4699.3665415
-78.0512202224	36.1026304784	79.507952546
-77.9806953585	36.1122936467	61.7126869041
-75.6484717632	36.0843870128	-18.4132673036
-75.3753215128	36.1045274707	-26.7067318407
-66.0229894677	36.097303913	-4823.73929061
-75.6054269874	36.0716990503	-21.4174730533
-75.3369388186	36.0809700834	-30.9973749744
-74.9082291997	36.0769546191	-75.8889971618
-78.9017999316	36.0337628843	113.479397782
-74.9319640449	36.0458199168	-68.1304803324
-73.8473182441	36.0332853208	-3020.14849987
-73.1496862067	36.0257455381	-3681.77373427
-72.6859612878	36.0375495004	-3829.02668379
-69.9523710934	36.0437491955	-4566.05726608
-68.1824734826	36.0195114883	-4837.43748231
-68.132727081	36.0265008928	-4892.48400056
-66.9341617836	36.0239668386	-5098.01604
-74.8841735175	36.0113390395	-87.8026442495
-69.2373115594	35.9863614635	-4658.72206215
-68.542352984	35.98951595	-4801.16861199
-66.747099222	36.0046421187	-5024.26956516
-64.3201831134	35.9910546998	-5030.4547801
-72.7353937741	35.9507593522	-3875.90516463
-72.2353395485	35.9640970612	-4037.69899425
-70.8069586189	35.9721857579	-4425.83500522
-64.109084189	35.970646319	-5019.96511755
-79.9650881961	35.9226504648	257.769608097
-77.3007401588	35.9384912038	25.7836765186
-75.3215609842	35.9265310624	-27.1368820575
-72.6879851262	35.930001379	-3910.57419917
-76.5881438835	35.9023496033	5.91204151602
-75.9713934045	35.903165386	-3.7410048041
-75.8539025094	35.9081321666	6.66662109502
-75.5963332633	35.8913197787	-0.0257843675288
-69.1119009876	35.9130741851	-4728.72762878
-76.9877349571	35.8518884973	6.39872738297
-75.9519954677	35.8677302943	7.4636064262
-73.0302422163	35.8809255259	-3817.24325342
-71.4016078447	35.8779674181	-4304.53792288
-70.151623915	35.8778961906	-4487.98620549
-67.870589124	35.8789127329	-4920.11754624
-67.6255124899	35.8661897973	-4983.78532619
-65.6364959859	35.867985309	-4811.51007774
-72.2462260314	35.8327409932	-4062.875356
-67.5734181048	35.8328192429	-5018.98732462
-66.5765460667	35.8192451232	-5006.35480485
-78.3431397445	35.8012748108	75.8536974061
-75.2423348107	35.7522791409	-34.8334715666
-72.5450542981	35.7777792298	-4056.46245366
-78.2265631027	35.7285891444	71.3847126375
-75.1986714058	35.7403047391	-35.329676401
-73.6106694758	35.741544214	-3413.17689377
-67.4538726823	35.7410121345	-5068.10220125
-67.2180991411	35.741067794	-5095.71024816
-66.5760241163	35.7294712857	-4982.91456036
-64.3826856168	35.7205771551	-5233.24590572
-70.8518714564	35.7025344864	-4439.73454714
-76.5879262297	35.6535370544	5.94096278432
-70.5518600524	35.6589464553	-4472.67181286
-79.4466130805	35.640823894	164.818449346
-76.9696105257	35.6368341454	22.3767027465
-74.6435947095	35.6457988665	-1790.04775672
-72.8004282232	35.6286084473	-4048.35782903
-71.230075251	35.6450436346	-4394.51786752
-68.3262356987	35.6414302074	-5030.22210567
-76.1871436519	35.602182132	5.25144875235
-68.9932493591	35.6073999561	-4901.77497459
-78.1620771206	35.5595918268	49.5553987481
-68.8296318002	35.5791462034	-4951.55241094
-77.8221279298	35.5336471058	33.1564669221
-75.7272773887	35.5388147354	-4.659510818
-73.3585812195	35.5491235822	-3758.89678356
-70.6559203149	35.5401701972	-4474.3507993
-70.4705154181	35.4983146309	-4496.60184468
-76.4748376219	35.4678567506	3.68322575925
-70.4178722307	35.4644209004	-4498.61902604
-68.0485483427	35.4790187261	-5085.14949431
-64.3451556043	35.4599798254	-4997.07284642
-64.2388062329	35.475893703	-5071.04078877
-73.0478948695	35.4487659863	-4043.46054035
-70.4645283774	35.4336326911	-4516.37438035
-70.0246415986	35.4261301502	-4678.39427189
-66.0471308464	35.4341289519	-4931.20242813
-65.7517666527	35.437980131	-4880.09956217
-78.5037271448	35.4017631008	49.4266889181
-72.8346734535	35.3976615562	-4149.14171618
-69.4610903363	35.3929463184	-4970.11999885
-66.6489170877	35.4047113515	-4954.90722557
-64.6448203477	35.403860525	-4902.00599729
-64.3839841114	35.3868661306	-4976.12527169
-79.4894969088	35.3627218424	106.002417997
-79.0074702124	35.3538203693	77.1613904276
-77.6950294216	35.3570930703	35.3545518882
-74.1399401474	35.3507314405	-3072.90376817
-69.9493829636	35.3830583773	-4791.6392295
-66.9799872055	35.362565492	-5081.71170024
-79.6173328234	35.321349763	180.973981843
-75.2260446675	35.3271866782	-28.9760274212
-74.9783189497	35.3204098275	-104.111765701
-71.7573333419	35.3376786082	-4319.34977678
-66.3342563893	35.320114535	-4981.04791859
-76.3449078185	35.2902327558	-2.65201768894
-74.658371759	35.3021292134	-2364.1034162
-72.7693856027	35.3145694664	-4230.21304844
-72.0703166388	35.3017499453	-4314.50668488
-71.2401636724	35.3161280087	-4356.5565961
-67.6242206635	35.31203197	-5188.75603466
-78.8167554731	35.2694329402	40.7457210577
-78.080720394	35.2660115628	40.7398849467
-76.6349843799	35.2810150242	-0.41574343132
-75.5040777379	35.2683662108	-8.64051906234
-72.9831401152	35.2674568935	-4165.79916036
-66.1071745391	35.2652458294	-4967.46679604
-79.1761734556	35.2373683049	89.2898753949
-75.8388832863	35.245420993	-4.98038265463
-73.6882349521	35.2247656664	-3623.05284163
-66.4532725226	35.2266738607	-4998.94789321
-64.733020604	35.2416180005	-4918.20130567
-74.834538219	35.2139705462	-2111.9297219
-77.2722197535	35.1700489415	16.5718855915
-74.2893181715	35.1702409392	-3029.54491519
-71.3233254437	35.1816648474	-4368.42737097
-68.6320511795	35.1724883286	-5117.20348729
-76.6996258035	35.1331320559	-0.91322827653
-69.2908669958	35.1368337204	-5156.03295638
-67.1471588999	35.1469056649	-5170.45996803
-79.4793735442	35.1152183791	132.808549229
-77.4235741112	35.0843028319	7.48515867158
-73.1086730776	35.0893233573	-4140.78848112
-68.0909913052	35.0858057258	-5221.63625378
-67.2976102621	35.1147116279	-5190.65152772
-64.6875241328	35.0982174729	-4958.28149015
-78.8847387726	35.072603677	40.6894092108
-77.9592335513	35.0788416942	42.2323492965
-73.8693387703	35.0764744808	-3540.22035213
-71.2417488132	35.0729439822	-4412.77907572
-70.0310811503	35.0833096137	-5033.15061901
-68.5498377404	35.0716318605	-5219.18996462
-75.719898952	35.0378289749	-28.428793981
-70.4132913157	35.0368062225	-4752.64931366
-75.6774855087	34.986643773	-29.3506107877
-74.9194841883	35.0137623367	-2653.78525721
-74.197396827	35.0125593138	-3230.42219972
-72.3494922334	34.983683866	-4442.81288701
-71.2824779336	34.9866541666	-4423.92506234
-66.8412618874	34.9856227902	-5172.96255065
-74.5818211039	34.9541561384	-3014.46364953
-72.1513474398	34.9694340345	-4427.38499772
-65.655860924	34.9786954229	-4953.15243041
-64.0723032281	34.9695094493	-5026.43049716
-71.467746373	34.9182505388	-4377.16592079
-71.4157251229	34.9348010462	-4389.81150121
-70.0545496969	34.9339721207	-5129.37673367
-67.2408627734	34.9247446139	-5220.65193213
-78.0993594071	34.8983283494	38.3961401989
-72.4284225593	34.9070937414	-4455.10636958
-70.496122855	34.8945342567	-4818.00838471
-77.6703042675	34.8662883085	27.5542740798
-75.5402492935	34.8633097824	-62.8158793757
-70.0816089614	34.8542003077	-5150.8944472
-69.2279866139	34.8608670499	-5251.79227206
-69.0903547877	34.8538015452	-5273.17268731
-66.630758242	34.8556527835	-5170.18775836
-68.7923716702	34.8255059462	-5280.04289177
-64.341885999	34.8247609105	-4943.50335065
-78.4358989515	34.7900406796	18.8241222981
-76.9322466836	34.7928412821	8.33574688446
-76.1365489569	34.8149771173	-23.833554743
-71.5970551556	34.7893321183	-4404.98016003
-66.4570974868	34.8106566336	-5147.93348675
-78.8312887395	34.7593597475	40.3801371093
-71.4953784009	34.7771178488	-4424.25422344
-64.0446291417	34.7665300373	-5017.493246
-76.4605504407	34.7204770859	-0.185779637475
-71.6219323313	34.7482083294	-4422.10171519
-78.5288664468	34.6935980323	25.0334603797
-65.2238182953	34.692269903	-5044.8611202
-64.5912369418	34.7037342678	-4739.58496047
-64.4374607431	34.7060410086	-4826.19768286
-64.1512879804	34.7075763497	-5032.1175883
-77.3222193035	34.6634841415	9.42986604
-76.3594882844	34.6632331091	-19.3052313946
-76.2721600292	34.6529676098	-27.5657965046
-73.3779643371	34.6526828598	-4196.17003596
-73.0303701353	34.6699531044	-4455.1834939
-65.6656671472	34.6820933524	-5041.39208206
-78.1648405037	34.6365551765	26.5966450727
-75.488367168	34.634971943	-594.080973932
-75.1867915817	34.6361600275	-2760.45725471
-71.2387892042	34.6371001306	-4738.94214118
-64.442365356	34.6260019022	-5122.68728229
-77.7182495136	34.5907305519	7.88186731818
-75.1885547094	34.604932424	-2817.94185421
-69.8669122857	34.5833862427	-5309.05664932
-66.7029017148	34.6158705245	-5207.46117794
-78.5353268751	34.5655165764	21.6810054532
-73.4170463278	34.5716651681	-4150.42388759
-69.7533608255	34.5732106122	-5273.08659988
-77.5360166792	34.5404950271	17.8336273992
-75.5018460283	34.5396472553	-1971.08966131
-74.350613353	34.5353167209	-3564.21307456
-70.3225811824	34.5469594936	-5292.75669434
-67.3363798649	34.5270628969	-5261.70414745
-79.03511811	34.4851338754	38.1506761993
-77.7335668047	34.4935743662	8.35658138594
-75.2026892804	34.4877508508	-2970.25323618
-70.6864699454	34.5005848075	-5102.14861966
-67.7465287464	34.4876440803	-5267.3182959
-69.8302977783	34.4807096871	-5335.82368062
-69.6020881634	34.4628874922	-5318.53931729
-79.5187355352	34.4453746306	42.4042572954
-79.5015291942	34.4462405035	40.0160929158
-79.0528532113	34.4271009119	37.1586448624
-76.9845219166	34.4337641934	-20.956354003
-79.5435177831	34.3956888767	32.5024683199
-66.619575688	34.408385873	-5250.24181999
-65.9603906954	34.3925338985	-5227.30222881
-76.4925443663	34.3586828375	-21.316412392
-68.5121004975	34.3810727933	-5319.6031512
-64.9635284697	34.3685427086	-5070.45533198
-75.6754895205	34.3356960641	-1322.73505065
-65.639584095	34.3450871633	-5093.81356467
-65.1990186727	34.3291178496	-5152.53958801
-79.8649239987	34.2925240734	47.0855062282
-73.7448831171	34.2931457126	-4210.5539249
-71.2595765326	34.3030700163	-5021.56467219
-67.5100960748	34.2945083605	-5272.50016002
-65.1683606287	34.2506916897	-5080.28345671
-64.3229193912	34.252450321	-5103.44183328
-75.8747427593	34.2483674661	-304.703783172
-64.4109124469	34.2372835168	-5019.23821751
-72.8964894157	34.2037909628	-4599.34424258
-71.5440977176	34.1839662456	-5035.90146775
-66.3451505687	34.2086819039	-5148.0328299
-76.9920518459	34.16040653	-30.281829836
-70.1142038359	34.1642207504	-5365.55743095
-69.4308413814	34.1634418928	-5349.54128526
-69.0051187226	34.1713970342	-5345.21209991
-68.0038988236	34.1631270238	-5271.08576022
-70.64542121	34.1486601048	-5335.27435222
-67.0175281926	34.1172065996	-5226.90754198
-65.9421316692	34.1320614555	-5039.63813741
-64.6065873656	34.1279716194	-4961.91391777
-78.986930191	34.0889333897	25.0129845178
-76.6737833902	34.0850776248	-37.1063331051
-71.2958046008	34.1052926481	-5218.44855131
-69.5197025191	34.0953413845	-5343.27473171
-67.8193060252	34.1034735665	-5256.94115826
-65.6758884944	34.0844981894	-4910.93495326
-77.6776545409	34.066876594	-18.3049364542
-73.4238698154	34.0581521131	-4494.26343226
-72.0097431801	34.0527859628	-4947.57953882
-68.1845960786	34.0698386394	-5293.65995908
-79.7461556493	34.0196469762	23.8384556487
-79.0047504078	34.0498794616	30.2165572228
-72.5226846004	34.0194769316	-4631.30443362
-71.7096856049	34.0339166746	-5131.92702609
