-67.1043082937	39.4229783218	-3783.27196823
-65.6986710586	39.4248630989	-4393.42321923
-65.6158654846	39.4177880089	-4379.00630652
-64.9072051649	39.4234024163	-4808.03828216
-64.2685282828	39.4101555671	-4911.52238286
-78.2605923779	39.3957840267	314.580993303
-77.1685042666	39.3917961108	199.655575462
-73.3019462718	39.4007314245	-51.8644087303
-72.8978105229	39.395778353	-74.1060564249
-69.7834023935	39.4008658442	-2500.38262111
-66.1879870678	39.3919596362	-4394.91939085
-65.2989966279	39.4073835003	-3046.5156877
-64.2186337785	39.3939874607	-4901.31872764
-78.225142046	39.3859808992	366.917394988
-77.124940625	39.383023	219.121693791
-76.4885614796	39.3819221134	54.1197682906
-75.1315378077	39.3834242697	29.8928382298
-74.4503471006	39.3882768626	-1.53248229116
-73.4600982263	39.3892782318	-40.7453118129
-73.3952432244	39.3903195809	-43.8063443844
-73.0910038543	39.3876344512	-62.545893625
-72.6597900282	39.3842677238	-103.377595565
-72.0569550135	39.3816485318	-1049.3403236
-72.0264786892	39.3756218503	-895.274698146
-71.9355772249	39.375246084	-1088.34907561
-70.7129349442	39.3860252897	-2589.16986355
-69.4695865239	39.3815150435	-2582.646264
-68.090815479	39.3778659056	-3154.39879991
-66.4717766431	39.3875068004	-4295.34235818
-65.6850310125	39.3859390791	-4403.91626079
-64.922896475	39.3908340993	-4807.13857656
-64.7136309523	39.379441681	-4866.20471019
-79.4318995846	39.3653463374	768.361788812
-77.9312955206	39.364535703	149.020710167
-77.8266396214	39.3667068879	152.701877442
-76.9702175916	39.3607464197	147.296602585
-76.4574494941	39.3640527191	23.1523244427
-75.4296111443	39.3741900573	-4.29999474266
-73.718264331	39.3670967172	-34.0679295431
-72.3212452942	39.3714504453	-163.091017649
-71.9243438504	39.3668131667	-1181.42733283
-71.1569449041	39.3726483459	-2520.21728085
-69.9408149523	39.3677608023	-2576.27195226
-67.9697158728	39.3696135494	-3260.83363447
-67.6621375324	39.3649206149	-3473.43476995
-67.0595266237	39.3633822973	-3583.13483341
-66.1768662642	39.3619944515	-4413.29688335
-66.0101624066	39.3651812139	-4420.70956951
-79.6695670186	39.3474936436	491.226921426
-78.2481365568	39.3521988976	244.374443899
-77.5199795428	39.356336056	211.566411537
-75.6472892145	39.3484944503	17.5569786141
-73.4556031048	39.3463207359	-46.9443840114
-72.5627269487	39.3563019137	-127.925007826
-72.4926441947	39.349683332	-134.280686474
-72.3463823313	39.3472040544	-161.608514398
-70.3062154755	39.3579721588	-2614.80272387
-70.0138565777	39.3484892572	-2616.90331239
-68.5654561913	39.3489192898	-3032.57371033
-68.0878646616	39.3482079233	-3190.48280343
-67.5469816716	39.3475680227	-3641.36349189
-67.1375692948	39.3464218068	-2658.17908198
-65.9981433609	39.3508312355	-4431.63625214
-64.3671743946	39.3545299831	-4938.82333171
-79.2233474549	39.3329257506	793.836721528
-78.0371863386	39.326297919	165.879383122
-77.1930493178	39.3357042174	234.265721669
-76.0275272634	39.3259566116	22.7860487129
-75.0730783991	39.3376497241	21.7997658287
-70.6839368822	39.3307434867	-2644.42673462
-66.8160883276	39.3302627715	-4257.19134551
-66.5839879227	39.3395920048	-4302.44542808
-65.3096338517	39.3312895025	-3064.64768783
-64.2535550372	39.3376728992	-4920.89049689
-78.1544761426	39.3161754111	272.145528675
-74.290124369	39.3245808544	-16.9845549202
-71.1179447505	39.3127444337	-2633.86875536
-69.7809522998	39.322025417	-2568.19522653
-68.4556528723	39.3148276644	-3064.03088604
-67.7708964887	39.3123235765	-3431.37962365
-64.9282815088	39.3128135639	-4835.23691733
-78.1293671793	39.2948110017	239.805964124
-78.019592463	39.3076673957	162.140478235
-76.9204174564	39.2931700336	155.020974567
-75.4604051614	39.3056826281	2.58283202672
-74.3883945469	39.2937387513	-13.9091481444
-73.4592805698	39.3079384441	-44.5583402415
-73.0118549434	39.3080330553	-68.6818909002
-72.2536620164	39.2955012756	-360.819192405
-72.0165998228	39.2981873664	-1895.12095025
-70.5793142573	39.2958398747	-2661.29345272
-69.4475289832	39.3027909311	-2680.09945399
-69.2188757012	39.3082664038	-2793.7078828
-68.1838911791	39.3022890749	-3185.06486992
-67.3987483473	39.2954193825	-3797.32910179
-78.9810263063	39.2767358894	298.69364196
-78.8136849696	39.2880186426	263.592348182
-77.2033228265	39.2815270039	236.826872627
-75.8362822439	39.2770057457	14.8844802712
-75.255317574	39.2750775876	-3.17487384955
-74.0677385079	39.2791646893	-28.8864229437
-70.1501462414	39.2807969215	-2669.20875947
-70.0652626185	39.2783274452	-2652.32937595
-67.4570605994	39.283035467	-3684.57753961
-66.7661215452	39.2871494355	-4292.10248591
-65.756976799	39.2871776546	-4490.44132818
-64.7552215684	39.2901320184	-4862.04580692
-78.0357512226	39.2629914308	156.843051677
-77.4698489669	39.2736016574	89.2949318008
-76.0550023299	39.2653786863	17.8181273823
-74.0487266826	39.2712490993	-28.9197155798
-71.7164442724	39.2593457798	-2198.31953045
-71.3918936809	39.2706704351	-2535.18880201
-69.558248217	39.2585845428	-2634.1247537
-67.8546928558	39.2723138841	-3390.17987972
-67.3175029323	39.2588997023	-3881.03724848
-65.4037393487	39.272647916	-3373.97060561
-64.902881362	39.2719590539	-4840.77808816
-77.5310982529	39.2453290099	86.845490922
-75.0182616166	39.2421542729	-0.198689212396
-74.4508376766	39.2536702963	-15.8500997223
-74.3543587822	39.2447459834	-17.7383733512
-71.8051639534	39.2545180233	-1961.2095756
-70.7711691888	39.2456013212	-2722.72541234
-70.3084229856	39.2449447649	-2707.83594079
-70.041359718	39.2423005315	-2661.58856245
-68.8588950508	39.2513731258	-2957.73018089
-68.2312474569	39.2554156283	-3220.73688969
-67.8385626878	39.249306344	-3412.19012316
-67.7226180377	39.2438413935	-3469.87581471
-66.8806602	39.2541832129	-4248.90257012
-66.7579577951	39.2512328277	-4320.08129212
-75.6920802275	39.2400448421	23.0120176383
-75.2298337124	39.23435125	-4.83189002394
-74.6021957372	39.2312590541	-8.1580703653
-73.0296968338	39.2294522399	-73.3571891775
-72.7237953882	39.2264638605	-119.377824473
-70.3331666693	39.2398125479	-2715.13681738
-69.6716200661	39.2359487364	-2697.05815438
-66.9562577246	39.2352704132	-4225.44041251
-65.2270692742	39.238405774	-4779.25138093
-79.8780029192	39.2120608563	524.18852408
-79.0471302639	39.216822541	337.825160145
-78.3486516841	39.2239360163	481.504705864
-76.9079382331	39.2111728886	118.894922456
-76.3655754162	39.2113746988	-3.65244890005
-74.568820854	39.2125823112	-13.017222168
-73.619729732	39.2160723941	-43.9393619979
-68.9204591759	39.2126504803	-2996.60873103
-64.5113090577	39.2121707263	-4935.87711069
-77.9251099741	39.2059748234	164.200146064
-76.6158426984	39.1984387735	27.0554373978
-76.4616497739	39.1981344732	-4.54894657379
-74.6420054709	39.1987878146	-4.86757705319
-70.4438222081	39.2056716407	-2755.03636047
-69.7901107323	39.2026277209	-2662.03790136
-69.1823732058	39.1989706071	-2951.7130689
-66.8442996605	39.1945098737	-4312.02821591
-66.6956371082	39.1942822026	-4375.81647913
-77.0983411582	39.1845173599	154.518522692
-76.7124437823	39.1786961207	38.6477631946
-74.3542753208	39.1765220413	-19.7058839466
-71.5798839515	39.1807810949	-2528.78144735
-71.3029319454	39.1761891903	-2711.56253096
-69.8235781667	39.1898348877	-2666.11280674
-64.92296093	39.1757122749	-4873.96976774
-76.4941466881	39.1740116166	-3.31607230658
-75.8233121689	39.1687042327	20.4624909637
-75.6706261093	39.1660928303	25.0707426607
-74.6964190056	39.1596212039	-0.616425786259
-69.1092411005	39.1614209102	-3028.31602661
-67.6420730146	39.164953536	-3545.08985806
-64.2179884763	39.1600163976	-4923.18209742
-79.3740329218	39.1463609511	983.254498943
-78.6205610403	39.157928838	459.741102586
-75.6545591185	39.1550925137	23.2246467581
-75.4830705204	39.1442450905	7.59453239158
-75.4078715497	39.1525797197	-1.20460168711
-74.5351984624	39.154412678	-17.8142130616
-71.3474915807	39.1464135224	-2709.11208773
-71.269542243	39.1561111422	-2759.9829646
-69.9575246004	39.1499380829	-2677.42106415
-69.447459812	39.1434094744	-2887.95709199
-69.4143272366	39.1556896182	-2893.89799589
-78.4305551045	39.1255927855	507.969149873
-78.2882530532	39.1355627203	272.516266335
-77.7178983156	39.1273580702	155.824700346
-76.2523234097	39.1327234232	-1.31747686312
-76.0396133643	39.1294527674	14.0610827012
-75.6167099157	39.127602289	18.9709814129
-75.5889376828	39.135947405	16.0510466465
-75.19553302	39.1401962848	-6.54855930876
-74.9659092179	39.1343417341	-2.97526066989
-74.8674385896	39.1341628642	1.7759092501
-70.1314968197	39.1341990219	-2743.13352576
-68.168998519	39.132851413	-3354.24678886
-67.8791414443	39.1266580397	-3475.46070454
-79.7916904165	39.1106754863	694.545492178
-77.6878501837	39.1135558286	134.555689201
-77.3729738432	39.1186125824	91.204513699
-76.3736167012	39.115047338	-5.91089445366
-74.2048107135	39.120562593	-26.7227190602
-73.6033421725	39.1144272523	-49.675289422
-72.3126951867	39.1139822626	-1158.12630909
-71.8719204626	39.1195578748	-2207.03402025
-70.3772234872	39.1182470942	-2786.28568974
-69.003303478	39.1228346625	-3076.40383613
-67.4196252764	39.1096641482	-3827.92143221
-65.6517242201	39.1122631045	-4673.98982677
-64.050783366	39.1198267849	-4919.90013398
-76.4755414708	39.0999697471	14.3517631511
-71.7884940467	39.1020413773	-2210.27759243
-71.6063806972	39.0960691409	-2604.32370903
-66.8201632885	39.0961846696	-4381.89656268
-64.8895618622	39.0944168107	-4913.81740839
-76.830312042	39.0865202868	48.8741885544
-73.6024597853	39.0872983546	-45.9517778202
-73.5463040963	39.0864124806	-50.9332139319
-67.4432947056	39.0833927715	-3834.59694424
-66.8437568037	39.0828454704	-4372.56210066
-65.7985687041	39.0853704685	-4668.97771857
-77.622419833	39.0642142766	150.744274361
-76.8422091514	39.0611851164	53.0273376607
-75.3376164191	39.0693293647	-2.87113754769
-72.2099805811	39.0704613799	-1675.60633669
-71.9497967399	39.0587083199	-2263.25491104
-65.4274373583	39.0640615099	-4769.89744406
-79.6976943611	39.0509579838	734.554422287
-69.6062791374	39.0583107868	-2933.68885565
-66.9477492212	39.0460902588	-4347.37224609
-64.6184691045	39.0566461371	-4924.43264193
-76.5970521032	39.0264251218	43.0698088449
-76.0979965833	39.0272485563	22.6864159941
-75.9978935178	39.0295690471	23.9714080417
-73.4777833193	39.030410605	-55.1753486389
-67.9108703602	39.0339353145	-3614.34317736
-67.7573201152	39.0340710269	-3660.54271818
-79.6119205503	39.0085556046	1074.16728718
-77.7793441404	39.0090728686	149.613393194
-75.4592830443	39.0226017968	5.01037403765
-74.4486262325	39.0164011144	-21.0851495958
-69.7232377183	39.008823561	-2932.69067748
-68.488551954	39.0109861814	-3328.49870172
-67.8706230688	39.012964698	-3684.76091866
-66.7328836484	39.0119439834	-4421.58089597
-65.6641142525	39.024941484	-4706.45101493
-65.2291847399	39.0201437273	-4870.11464889
-65.1617468005	39.0222917223	-4870.97058593
-75.4904849806	39.0047336132	9.85981801802
-74.6352671956	39.0040493445	-12.9052656171
-70.932248536	38.9961310462	-2821.96347017
-70.6457111941	39.0062148743	-2834.79727702
-70.2564800485	39.0069218338	-2800.32813835
-69.7669950452	38.9916682304	-2933.92462964
-68.6498039535	38.999058614	-3263.73997152
-68.233721437	39.0067007937	-3497.39019137
-66.0897119092	39.0020190482	-4341.50823236
-64.2096481846	38.9947866038	-4712.74348069
-77.1733245836	38.9828495183	70.8870041979
-75.6508083174	38.9814119362	20.9778235557
-75.4048497432	38.9834789843	7.92426910924
-74.7754415398	38.9859451041	-9.95599162398
-74.6158804719	38.9767718264	-10.7840166443
-74.2587877262	38.9838087172	-31.4296501104
-73.9170496137	38.9787286841	-40.4376046056
-72.5622469823	38.9811022752	-1222.54998262
-71.3293218274	38.9848412783	-2730.83100442
-69.5604013752	38.9875769974	-3036.39952963
-68.8342953719	38.9885739335	-3215.68110362
-66.8467159284	38.9886032292	-4382.3675576
-77.4566877845	38.9662335389	79.8885316314
-77.0225117044	38.9602822312	79.0649162005
-73.9070667596	38.9598371782	-39.2824719459
-73.6689188749	38.9684575111	-49.8142887328
-70.5861712948	38.9749105745	-2864.78209321
-70.2805280119	38.9601349779	-2827.37827977
-70.0572769298	38.9616113365	-2819.84917409
-69.641565929	38.9601407372	-3039.31301675
-68.1969230865	38.961937713	-3554.50272909
-67.154263848	38.9662868478	-4303.59749184
-67.0285747512	38.9664852754	-4357.43858946
-66.3877709445	38.9693108261	-4565.00104274
-64.3865844758	38.9616934196	-4968.33020589
-78.8925642366	38.9479545601	684.180850387
-77.9256332954	38.9417346404	188.702470137
-77.5617073987	38.9421455697	104.021656545
-77.4334946412	38.949055864	88.111043691
-76.3936250268	38.9477099203	-19.9022488259
-75.9067778196	38.9526255936	18.002333738
-75.82756236	38.9471737914	11.81028345
-74.8592971837	38.9515406326	-3.39052572602
-74.3751262475	38.9480867893	-24.3130804329
-71.4745923688	38.9418465183	-2608.5833534
-70.0503059877	38.9580443301	-2825.18906337
-69.7863253456	38.949256415	-2967.253556
-79.8138064294	38.9415350654	737.641790951
-77.5273653779	38.9406135105	97.3855226481
-74.7197176789	38.9374062628	-14.4341943588
-74.0661073374	38.9399034776	-37.4125618834
-69.4390368412	38.9341624439	-3127.43520466
-69.0589680397	38.9365052343	-3204.68619183
-68.6509665943	38.9360467852	-3312.33960864
-67.0343180462	38.9263640665	-4368.65768077
-66.5338445765	38.9379024342	-4500.70817603
-66.020467856	38.9279006296	-4626.53113212
-64.844230317	38.934559083	-4847.5177038
-77.5835717607	38.9100938947	103.670789632
-76.9173152954	38.923409129	32.4039189555
-76.8259778381	38.9180049174	47.4987031329
-76.2679055092	38.9208990321	-1.66043812683
-75.86568298	38.9158646934	16.9455244227
-74.9970700569	38.9114812933	-6.92177061015
-74.9178353599	38.9202988878	-7.71676432887
-73.6905190915	38.9154503443	-45.4752404518
-71.2458964471	38.9231793717	-2866.26750115
-70.844708133	38.9194095754	-2863.49301885
-67.0109234168	38.9223108277	-4377.4630001
-66.4232685875	38.9192337566	-4554.83110853
-66.2949128385	38.9206670024	-4583.4893053
-66.0474544177	38.9136384525	-4619.56589314
-79.8399093038	38.8980099898	616.577266182
-79.798295021	38.9026282266	845.741627254
-78.9665355603	38.8959317156	735.299243971
-78.3037384368	38.9025264927	254.319709894
-77.9319922318	38.9035188355	176.563818715
-77.5619177211	38.8976797298	95.0656502798
-77.1547882618	38.9072781712	109.262627075
-72.1315845736	38.8971476131	-2452.97974736
-69.7341471416	38.8981369459	-3071.76881071
-64.5020850676	38.9030465097	-4913.79381569
-76.8412531749	38.8903454639	42.9092115731
-74.4299060974	38.891271396	-28.2406634309
-74.1332725483	38.8797892802	-41.7805239831
-67.7728226649	38.8750562206	-3959.72090026
-67.6732567268	38.8879462913	-4026.95089186
-66.7778046517	38.8876314149	-4430.49832962
-65.1492485931	38.8862118595	-4895.48486955
-64.8451199759	38.8819331661	-4965.47476526
-64.0362258181	38.8815243192	-2124.44450577
-78.6933577353	38.8741693557	373.407525167
-78.257101006	38.8685556598	182.653962049
-76.4516000731	38.863218578	-7.97983724261
-72.2890686282	38.8667810954	-2456.1024136
-71.6657794005	38.8726946399	-2592.9092529
-71.4563246106	38.8715599612	-2678.60791128
-68.3179306483	38.8649554164	-3566.38455641
-66.8026242493	38.8695670203	-4438.14026066
-66.5726804075	38.8656264641	-4520.68801219
-66.2496044423	38.8675734051	-4592.05176163
-66.2229597579	38.8699201927	-4597.43815895
-65.03809882	38.8655736916	-4916.40533599
-64.6040561127	38.8722341307	-4926.05541231
-78.028402484	38.8456205115	285.455796985
-77.6179488737	38.8546124533	122.217861591
-77.4506389934	38.8487591133	77.4099966275
-77.2268830227	38.8467365042	99.354641693
-73.4252367064	38.8559676878	-63.1462943385
-73.2623392685	38.849054607	-78.9392897776
-73.1033894239	38.8574574352	-80.321565537
-69.6367780592	38.84927973	-3156.785773
-67.3270853699	38.8497819849	-4270.37413329
-66.2311708192	38.8459566035	-4592.09018119
-79.7924274429	38.8304441705	838.731890178
-79.7869118898	38.8317688465	871.974936551
-78.9709752942	38.825054469	702.586478355
-77.5654862512	38.8409522981	83.2274708911
-77.1612816067	38.8375287041	96.3974398487
-76.3461995778	38.8352019102	-11.6155754916
-76.172285853	38.8323394865	4.71046597087
-75.5229057053	38.832632	19.2076693284
-72.5085439647	38.8340617813	-2250.91115703
-71.9291898943	38.8396356575	-2607.90673388
-68.1492448022	38.8355768663	-3760.38850383
-66.5876156849	38.8299436964	-4511.68155846
-65.5554904647	38.8409485169	-4782.89032602
-64.5698607194	38.8363017127	-4936.67131251
-73.8463265048	38.8150271572	-45.2669845547
-71.2895869498	38.8192627005	-2864.87689468
-70.3950409174	38.8161366232	-2876.74242983
-70.2416877403	38.8188186012	-2906.42205548
-69.2388512368	38.8120365053	-3245.65457185
-68.8785965689	38.8096745484	-3318.50947575
-66.731259772	38.822191006	-4472.7281373
-77.8538348963	38.8010393627	252.018950295
-76.6012185796	38.8050228529	41.2922498881
-76.0498137903	38.7948605701	18.7710945767
-75.0833362616	38.7993384026	-15.7604758921
-70.8686107578	38.7945255548	-2916.9236498
-69.8490138901	38.8077086195	-3115.72556434
-66.9094177275	38.8000433281	-4452.43604662
-65.1055814703	38.7992774978	-4910.10568367
-64.1653937475	38.7919839233	-3210.32312321
-79.6735995708	38.7916577592	1049.40345667
-79.3081590083	38.7815717854	636.94011526
-76.4252853004	38.7881645583	-22.692923594
-74.9452217645	38.7829610169	-17.4556899395
-74.1010080474	38.7810927875	-44.9509007106
-72.253586311	38.7815552413	-2605.02325182
-68.7113548018	38.7780850254	-3447.27891039
-67.572588967	38.7886037737	-4157.8536593
-67.2505323977	38.7904139519	-4323.96618752
-66.3176356565	38.7847733892	-4563.81043173
-65.740945638	38.7848444454	-4694.42351296
-65.7052790009	38.7867644489	-4703.0910752
-65.2032412073	38.7750659943	-4851.33485202
-64.0251445249	38.7788749322	-2656.99939297
-64.0185014233	38.7861979365	-2469.25780902
-78.1158100209	38.7730260067	194.385318131
-75.4739897752	38.7722458079	15.8550407287
-74.5284687479	38.7674218699	-25.8947502059
-73.1094215555	38.7642062105	-114.581707726
-72.714253683	38.7626107059	-1955.21761595
-69.3039069424	38.7736640148	-3294.19048317
-68.3539682722	38.761363814	-3713.07997546
-67.4507429467	38.7701022684	-4235.62014611
-67.4381875561	38.7693894155	-4242.23993218
-66.9319073497	38.7627623588	-4466.73350665
-65.5533037342	38.7588568762	-4720.34352433
-65.4523783407	38.7638603955	-4753.04795867
-65.3195019967	38.7722149476	-4824.35903158
-64.9378914912	38.7655262261	-4988.37797726
-78.7777543956	38.7421049423	414.9171264
-77.1103060828	38.7432720236	16.7001138241
-76.444492629	38.7502130031	-16.6853422647
-75.4926485398	38.7507980749	15.0247139934
-70.9831738505	38.755825939	-2968.16166874
-70.2049601032	38.7525873393	-2990.49754857
-68.6586776919	38.7562092975	-3506.53397844
-66.4283871289	38.7476376131	-4567.95714507
-78.7644551912	38.7354109421	419.379291789
-76.2618299333	38.7365378834	-1.09030713478
-75.653698271	38.7277882382	17.5246405793
-74.1876358959	38.7353239305	-46.1064385544
-73.3201164647	38.7378102936	-73.5971059194
-71.6671341619	38.7353409588	-2722.38811601
-71.5500284245	38.7266697235	-2730.9605658
-71.4072337036	38.730273994	-2791.28026275
-69.0226691016	38.7257941834	-3362.34700428
-67.3127584398	38.7378619224	-4309.12605806
-78.5314279415	38.7134073622	530.947394137
-75.2731071614	38.7209627539	15.1269760333
-74.6451613655	38.716917856	-26.3053613966
-70.5663066984	38.7134056486	-2954.91508288
-69.6166592117	38.7205955483	-3285.19286244
-67.8302686381	38.7244471892	-4103.42376779
-66.8152412413	38.7192421615	-4501.80707597
-66.1088089804	38.7143253035	-4602.18852389
-64.3825705649	38.7229119412	-5060.62731524
-79.8569140359	38.7060793735	1163.55018391
-79.4586609376	38.7063595488	690.863500366
-77.4069773245	38.7020086407	81.3715816726
-74.7932719713	38.705174642	-18.4062934673
-74.6725420629	38.7077482104	-24.5574437487
-72.337846745	38.7009631939	-2626.90062061
-71.5017707755	38.6923315547	-2762.90905545
-70.6539128677	38.6917708203	-3043.7639283
-69.6619556424	38.7082037277	-3286.53512073
-79.5569092778	38.6855188406	1277.61409348
-79.5178592128	38.6812271237	945.973175852
-78.7998272622	38.685526131	443.145610199
-75.9576012175	38.6825726464	-6.38913125519
-75.471258899	38.6909872874	14.0692678816
-72.9435446975	38.680687128	-1431.48814029
-71.4231509377	38.6788478478	-2772.09997513
-70.777417581	38.6821008682	-2975.35513236
-69.1241422766	38.6800801366	-3348.77254531
-69.0576251992	38.6808182358	-3471.27886669
-68.8761919685	38.6908926278	-3403.81103957
-68.4621997198	38.6910624973	-3703.79829643
-65.6744524695	38.6872903317	-4699.31980174
-79.2849627357	38.6675672888	677.338485221
-78.649438157	38.6708539858	290.067229406
-77.0993337245	38.6589677765	16.9821203148
-72.7211944576	38.6708162821	-2257.57041405
-70.8441335442	38.663970331	-3132.2001006
-64.2691126542	38.6730558037	-4988.37730563
-79.6287414579	38.6524350926	1168.11094649
-77.8100965311	38.6430143624	145.176397971
-74.3122291538	38.6556356236	-43.2704446295
-73.9666968407	38.6577887371	-47.6593588103
-73.0437036571	38.6554971508	-891.096110645
-72.1516027712	38.6543233826	-2723.23933474
-70.2220059215	38.6510174557	-3087.53868614
-69.5422479834	38.6465564206	-3347.45878993
-67.5941790359	38.6501724853	-4243.67502377
-66.5595197541	38.6508171655	-4579.76604394
-77.6794063885	38.6409017354	81.3912912729
-76.2444055584	38.6293601974	-1.74097875148
-74.0374974059	38.6277084484	-50.1219199755
-73.323183742	38.6377064868	-88.3275182865
-79.7871463745	38.6206586792	983.166629093
-79.0648519914	38.6200917757	998.318721959
-78.7487365672	38.6085337161	330.916062757
-75.0599998511	38.6157727449	-4.25586600137
-72.893304151	38.6237529985	-2041.11170769
-68.5263163617	38.6242238901	-3774.05198216
-67.1504579127	38.6104194134	-4450.35739701
-66.1915469478	38.6104323476	-4602.99052889
-64.1130834595	38.6157551839	-4798.31558215
-79.0717061977	38.5925096369	969.170248039
-72.7995678227	38.6006616897	-2278.46932959
-72.190370489	38.6077835954	-2724.24013998
-71.0295468602	38.6079303457	-2987.21385128
-70.6541094066	38.6017582661	-2997.64737073
-69.1030919129	38.6040859579	-3416.02954434
-67.8372897449	38.6040498859	-4169.68351705
-64.6279121864	38.6021739638	-4986.04982534
-79.8980748951	38.5761318601	1199.44933074
-79.4541164113	38.5823100193	969.745445712
-79.0752318348	38.5799917004	859.638520663
-78.1209548181	38.5757577664	155.450766454
-77.4460897732	38.5794693514	106.398486978
-77.1020224677	38.5793794489	17.8629410993
-76.3961717917	38.5892360865	-8.98441493501
-74.4463274155	38.5898744634	-39.8262549446
-73.5099635318	38.5781503527	-73.8373376458
-73.4003240063	38.5836797899	-83.9005719331
-73.1491402803	38.5823549091	-930.69719761
-71.9668893181	38.5754363707	-2768.70822321
-71.6080185434	38.5752275719	-2827.14082422
-71.0800902802	38.5889290593	-2960.9064891
-70.7076150806	38.58534156	-3127.1156533
-69.2551493297	38.5834519475	-3432.56061051
-69.1496414641	38.5855035505	-3420.85271698
-67.6059986668	38.5893560818	-4285.9652129
-65.900236302	38.5794085882	-4650.09622457
-78.6669051492	38.5729112423	579.788537187
-77.8700196361	38.5697803668	103.23013033
-76.3972444816	38.5619618355	-12.2760727148
-74.4172664408	38.5688648469	-42.9537240295
-72.867182028	38.5669159463	-2253.91709056
-72.7053091865	38.5684021062	-2446.31987977
-72.1422654503	38.5717877767	-2801.3099648
-65.21019809	38.5721753522	-4846.67960907
-79.7388260661	38.5522405824	944.167283143
-79.0724039893	38.5458734578	665.940130527
-78.8900743345	38.5516243524	453.919016787
-76.6805858448	38.555347251	-1.09819635906
-71.955825191	38.5468084051	-2810.59224771
-71.0097407806	38.557086984	-3094.9667022
-70.0240865974	38.5581735729	-3290.08477963
-68.7982082985	38.5525474048	-3647.23503787
-68.7500918232	38.5436249881	-3688.37769094
-68.2368720045	38.5504708889	-4063.25961631
-67.7992993685	38.5511439091	-4222.67264342
-66.7280944449	38.5550544022	-4578.02691907
-65.7181273707	38.5577656499	-4682.76571502
-64.2077671588	38.5434123858	-5009.58942392
-64.0191066414	38.5417682848	-4921.15226821
-79.4747687278	38.5321781396	829.819353894
-78.4438766085	38.5270550645	945.789037043
-77.9286755835	38.5255423582	125.512860265
-77.839899226	38.5290328956	89.6136177944
-75.3176865407	38.5402134604	12.9927370306
-67.5852072479	38.5257813914	-4328.33574819
-65.8663609484	38.5415621756	-4659.62872691
-65.256446839	38.5412375427	-4793.15312401
-64.0068268329	38.5349375217	-4952.61444225
-79.4584035349	38.5130904226	867.36791517
-77.0370769859	38.523599556	44.2050194377
-72.2897614503	38.5139937496	-2857.64783438
-71.9535440914	38.5161250441	-2831.95487772
-71.8310657925	38.5142555332	-2829.20538537
-71.5713824218	38.5216721429	-2842.55314686
-69.7786732045	38.5152620918	-3405.35854067
-65.8092539766	38.5150768815	-4666.11435122
-65.5796798326	38.5219622499	-4721.3886328
-64.0025173426	38.5215996935	-4974.08739792
-79.6153564451	38.504897034	994.857509238
-73.1734900815	38.5037780462	-1357.60649713
-71.2131265063	38.4991620427	-2875.97822707
-71.09570853	38.5052088073	-3042.72252197
-70.1578011243	38.5043918884	-3279.76469463
-70.0534111886	38.5075798614	-3329.83744054
-67.5936223956	38.4929613678	-4334.39242166
-64.6811024922	38.5036484359	-4971.45569725
-78.8251899475	38.4815109766	406.717510463
-78.2473131038	38.4819751403	202.365252726
-77.9525194606	38.4876119366	118.181853438
-77.5951555509	38.4850960358	120.870399435
-74.9429765171	38.490207812	-16.6288577596
-71.9027209244	38.4885628282	-2845.36771885
-71.6028076818	38.4806781283	-2856.84363912
-69.6545861241	38.485951843	-3472.88456625
-78.8362673292	38.4631268366	407.665369471
-78.4793638505	38.4599059878	749.460060648
-77.4776086199	38.4628603516	93.0324383171
-71.346698824	38.4641100152	-2902.93850941
-70.7261747824	38.4700618742	-3162.44202752
-68.9097709157	38.4714498876	-3651.05293099
-67.1236314863	38.4749170116	-4529.96522813
-67.0395553722	38.4683632015	-4567.83979856
-79.3224962947	38.4520377575	689.536736092
-77.2802357884	38.4418034649	-4.2598239739
-77.1081541689	38.4432559481	-3.64971035037
-76.6562794431	38.4530103898	-0.684245081821
-75.859169824	38.4487986399	3.24959055646
-73.880683829	38.451993244	-57.8453765801
-73.7080528632	38.4457428439	-69.5187587463
-71.3412766044	38.4581718205	-2906.58816226
-71.2657620121	38.4527497424	-2901.9344027
-68.466365414	38.4454535229	-4023.16983195
-65.6273187108	38.4575681931	-4757.85365177
-64.5632199201	38.4577187358	-5006.97238431
-64.2701049895	38.4451213835	-4926.75801104
-76.5344334229	38.4345088845	21.8857217333
-74.9992484129	38.4296840115	-15.7560744121
-70.6285719753	38.4272584824	-3079.06391012
-70.5448777781	38.4286639003	-3113.45747149
-69.3010296697	38.4291906899	-3604.30973581
-67.3771236033	38.4371077476	-4439.16243125
-79.4126209241	38.4151550589	909.711179464
-79.3672155586	38.4092017395	778.171798495
-77.8174834241	38.4124094566	117.969618109
-76.2019754258	38.4180684185	4.45695992401
-74.9968547425	38.4205329178	-13.7200849488
-74.5662024815	38.4220023772	-31.1116508832
-72.5025520811	38.4203094116	-2812.06101058
-71.7229125834	38.4149817398	-2865.00299396
-68.958542543	38.409593506	-3675.51893912
-68.801368127	38.420974022	-3869.78330951
-68.2822150906	38.4198161086	-4132.126953
-79.7323204799	38.3955936974	1262.5572296
-79.618654847	38.3944714015	1021.19121609
-78.4432666742	38.3969814351	433.435040269
-77.6803368468	38.4030940926	109.986173718
-73.0100549874	38.3937365657	-2263.34389846
-69.4436239402	38.3945654465	-3599.99012509
-68.6589223019	38.4012602029	-3923.65877554
-67.7728148195	38.4037261179	-4323.43415763
-78.3876717679	38.3767250424	262.707339352
-78.3556789599	38.3801401613	275.333987316
-77.9169404273	38.381174246	82.9003327003
-77.7964939018	38.3904339096	98.0576037656
-76.2651920078	38.3867837211	1.55699758297
-75.3409727418	38.3892173303	12.3318141846
-74.2851006139	38.3910122944	-46.7758463475
-73.0012789783	38.384389261	-2292.94785148
-72.8286776509	38.3809414713	-2547.38038247
-72.6269175972	38.3794176375	-2738.20277802
-70.6446592392	38.3798439933	-3125.30241986
-69.8198907402	38.3866517974	-3501.70653191
-69.7124940929	38.3830512745	-3553.6441116
-68.6423033647	38.3782890012	-3972.95460015
-68.0249927212	38.3864409236	-4234.03164337
-67.9196470845	38.3797001785	-4277.99750023
-67.1974215969	38.3776037974	-4555.22770624
-66.8024682118	38.3842238655	-4641.14593839
-66.6287341354	38.3782384006	-4644.23526435
-79.5439644007	38.3664275912	922.810685905
-77.8455426757	38.3708730286	100.872570565
-77.1662355499	38.3728417439	-2.8704811245
-76.402254088	38.3720205521	35.2145974595
-75.080446241	38.3651729544	-1.26193391676
-74.0284990864	38.368078517	-62.8222977114
-70.0072677163	38.3674771694	-3491.51511413
-65.9694722677	38.3651805429	-4717.49997204
-64.556024343	38.3605120351	-5072.2811287
-64.4357182088	38.3709807454	-5033.74776967
-76.7318668201	38.3486734686	21.9208280408
-76.1913605464	38.3474567925	-1.13413673357
-72.8601499688	38.348419374	-2510.12106055
-71.6491666546	38.3555879352	-2900.51251477
-70.4384929791	38.3437704948	-3268.19955913
-68.7292398162	38.3576795516	-3959.98211679
-67.5963680686	38.3463581448	-4422.99746531
-66.6267608565	38.3485077416	-4648.80510002
-65.64402707	38.3522429971	-4770.08869787
-79.3554975685	38.3388550488	955.872375311
-73.9016119809	38.3273913396	-71.0926709242
-73.5935365528	38.3320034427	-153.93910307
-71.6383118143	38.3266395388	-2917.69403749
-71.5908336004	38.3338278366	-2931.58972464
-70.471879299	38.3353738358	-3259.87049237
-69.2144590044	38.3395925371	-3679.10003738
-68.6973814167	38.3295610083	-3976.49895531
-67.564544508	38.3295782154	-4443.44446929
-67.036470653	38.3335346525	-4627.98650755
-66.5763099876	38.336039452	-4654.14105087
-64.2781210543	38.3303207105	-5004.86927908
-79.8814751729	38.309628213	969.867346369
-78.4633592435	38.3220746649	273.845743133
-78.3316593237	38.3129641024	170.438529158
-76.21623162	38.3221936134	-0.688696496654
-75.9904368576	38.32044453	-1.08631869049
-75.9543708842	38.3087359985	-1.2265885093
-75.0659908853	38.3175292631	-11.0994534527
-74.8692911541	38.3239217048	-17.5642636066
-74.1557301405	38.3085594868	-58.4400184544
-70.9382418724	38.3119815832	-3667.46779376
-69.4535051312	38.3153569979	-3682.55950748
-68.4380076846	38.3179916164	-4129.34054001
-67.6766562181	38.324535696	-4408.33181451
-66.2880234729	38.3174734955	-4679.11548696
-79.2386099544	38.2985219789	659.229518017
-78.9119534934	38.2917109338	358.466148458
-77.5624152709	38.2931443659	98.2674700581
-76.5613567962	38.2936079597	41.6744726116
-75.8464719485	38.3059045096	2.67664457858
-75.6413581053	38.3009715659	13.3332837362
-75.1303776554	38.3043888567	3.10436429428
-75.0300749219	38.2998950799	-15.6153465234
-73.5728766888	38.3009792028	-468.539844851
-73.4200231998	38.298624145	-1548.20122261
-73.0116127995	38.2916718592	-2418.09852952
-72.9027170878	38.3031824437	-2562.77169814
-72.8271484193	38.3006911484	-2673.96976806
-71.7596565819	38.301764669	-2937.82024172
-70.9556108597	38.3053245266	-3450.89231779
-70.4477304548	38.3082674427	-3311.04563006
-70.0170337362	38.3055329864	-3561.98239806
-69.4981885205	38.3053277751	-3689.92800203
-68.5572718031	38.2934543585	-4126.28431395
-67.9671351705	38.2970250679	-4304.83700586
-67.7595421242	38.3030079064	-4393.63302837
-65.8619258636	38.2991535572	-4723.99192653
-65.6881699495	38.3031694872	-4786.10536087
-77.6145893101	38.2915824225	98.8073078733
-76.6887961015	38.2779139077	7.78248479096
-74.1636508006	38.2893125025	-62.4672952106
-73.9954148578	38.2763330547	-70.7425989112
-69.6551702868	38.2757302915	-3695.44182458
-69.3086307968	38.2751534713	-3750.59837873
-67.2166395798	38.2883721349	-4580.258777
-65.6745429047	38.2855854762	-4777.93910467
-79.1385009061	38.2680997608	466.170256515
-78.6999123835	38.2632081938	579.14176054
-78.1855929634	38.2646176798	113.811538334
-77.3287427413	38.2664327716	35.5777697421
-71.5456455758	38.2720059772	-2968.24647693
-70.5626458258	38.2747244445	-3281.11204563
-70.4476800144	38.2713208181	-3355.19220316
-70.26978724	38.2702785787	-3450.20989151
-69.8906367002	38.2669434716	-3626.18891366
-69.2597975457	38.2587845159	-3764.70507658
-69.2511034334	38.2692477425	-3755.25506991
-64.1402683557	38.2622787004	-4890.57098923
-76.4190209417	38.2480938715	30.6315302172
-70.2607348665	38.2428424788	-3486.32293776
-70.0173251731	38.2566709725	-3613.80807589
-68.231763946	38.2464368847	-4290.93575113
-67.4561383368	38.2506276426	-4507.95546299
-65.4236558161	38.2439345849	-4825.4148647
-79.9119535684	38.2273640764	789.045501184
-78.7169457296	38.2328571213	756.041286201
-78.4557354741	38.2326435243	162.762876985
-76.3883397488	38.226716919	1.42245230806
-76.1460253653	38.2274764721	-1.78433802996
-75.9224027674	38.2380656098	-2.60286299763
-68.5337029791	38.23270805	-4177.34475812
-65.6739082791	38.2295973544	-4781.84431975
-64.3213092686	38.2271730733	-4999.69850978
-79.9833827764	38.2205292006	792.78399451
-77.6795501177	38.2120593918	87.777037433
-77.219535044	38.2243092415	18.3092333705
-74.252075133	38.212313233	-42.6072762286
-73.7642529876	38.2215695848	-116.935523079
-71.7297909519	38.2207552736	-2974.27261058
-70.6175486476	38.2134487909	-3366.75076063
-68.6788365118	38.2169789505	-4048.94522376
-68.3772071173	38.2117217836	-4240.26415379
-65.4572854794	38.2223494035	-4834.17939984
-65.1892865306	38.2197137606	-4906.70910613
-79.0120708491	38.1982329284	405.660456904
-78.8447783882	38.1980488953	364.385993361
-75.8018735628	38.2033080366	2.90906894468
-75.3248357975	38.1946288516	16.1561909486
-74.5725333218	38.200134324	-40.088495072
-72.2043505498	38.1962048319	-2997.58854525
-70.1478437214	38.2063585316	-3594.72220901
-69.6923047852	38.2074831595	-3753.68014469
-67.3425155968	38.2052958515	-4584.33101307
-66.8173639564	38.1919622515	-4683.94141182
-65.6558758103	38.2016703841	-4793.50714294
-64.1301243082	38.2080341336	-4963.33351623
-76.2237123755	38.1768846569	-19.9186475245
-69.2929774324	38.186624175	-3820.87883
-69.1932188446	38.1812972781	-3822.61917229
-68.1485085954	38.1887866353	-4361.75317227
-67.7301946374	38.1784853731	-4496.57932059
-65.458816	38.1901022029	-4852.10456189
-65.0225296323	38.1816858967	-4938.0075136
-78.271941065	38.1722853203	151.206365098
-77.2096839981	38.1696160716	15.6146016263
-75.655824622	38.160630921	9.62791070133
-72.3002715149	38.1604155508	-3014.29745964
-71.2925132622	38.1668649298	-3060.76647338
-69.8624497828	38.1676999275	-3741.9342655
-69.793711665	38.167566592	-3753.09587566
-69.4103361319	38.1749721897	-3836.06940691
-66.1955215345	38.1657567677	-4768.21861376
-65.9208820844	38.1747121309	-4795.53185592
-79.5020784137	38.1543026921	771.165846994
-79.2915327322	38.150566252	717.886029633
-79.1629650961	38.1480519269	494.853575381
-78.3915304236	38.1543700714	146.432244409
-75.9898279589	38.1462254916	-9.50834833406
-70.7283437954	38.156310225	-3599.27100588
-68.5166238642	38.1420896818	-4204.90696422
-68.0753224139	38.1541677211	-4404.71348532
-65.4689717374	38.1489212532	-4923.212283
-64.3485916855	38.1483781804	-5028.22353944
-76.8143252939	38.1298648958	43.2015680518
-76.3461079953	38.134736931	-2.60504013312
-75.4637109989	38.1300978717	7.90168466166
-74.1529028016	38.1377370153	-67.5281107776
-70.3928276107	38.1402800475	-3533.38242715
-69.3888853962	38.129494885	-3870.81982578
-68.6540948994	38.1338203494	-4120.79124402
-68.1675799508	38.1339553316	-4392.23072804
-65.674392619	38.1306001936	-4812.18568809
-64.8929880936	38.139366841	-4970.50606094
-79.066840298	38.124345528	472.090978637
-78.854782551	38.1143801865	390.159357671
-78.7648045489	38.1168625262	530.394292185
-75.2606996425	38.1148259212	-1.9256958421
-73.1154627321	38.1127353702	-2372.78435361
-72.6827690791	38.1102103536	-2857.46267042
-71.9638284854	38.1130525601	-2996.09013645
-71.1886214498	38.1166024563	-3122.51223648
-70.5970887051	38.120886704	-3642.54542439
-70.2460330381	38.1115604882	-3647.75938999
-69.7364731383	38.1085308474	-3836.039585
-69.4928097005	38.1184758563	-3862.57286061
-69.4902538012	38.1181171109	-3862.97651768
-68.6227413884	38.1092007738	-4157.46158437
-64.6814989302	38.1228349861	-5067.54233775
-64.6460782367	38.115834469	-5054.39966914
-78.6633516469	38.1041617673	201.023725845
-78.4140785404	38.0984876175	133.081773411
-78.3586937032	38.1021174994	186.805414717
-78.142226114	38.0974799004	151.269556952
-77.5259078283	38.1069604513	76.5029982172
-76.2894588543	38.1032786873	-10.5782576728
-75.3909852483	38.0947740097	12.2116362003
-70.7864233585	38.1058347244	-3648.32698741
-68.7364436783	38.10172298	-4083.97437351
-67.6408099102	38.1003156919	-4573.34786475
-66.5800745276	38.0967406463	-4729.38102913
-64.6872430074	38.1069204826	-5089.39452196
-79.9320830479	38.0755051021	735.352900535
-78.1798792845	38.0782784503	134.346435259
-78.1580019212	38.0889901165	142.445564458
-77.9482489293	38.0797680375	104.944609224
-77.7488799457	38.0831272956	97.3153959153
-77.2997529867	38.087250745	69.7009615584
-76.904035768	38.077952357	49.3060260007
-76.7834436506	38.0774669703	42.2801133376
-76.198236568	38.0806102101	-8.79928573622
-71.1294434476	38.0833200757	-3172.82780729
-70.3831614137	38.0909998399	-3602.39015677
-69.0273289853	38.0764381867	-3955.03883606
-67.3945331142	38.084358031	-4632.47340743
-67.2395893574	38.0894752834	-4664.23138312
-66.8206257014	38.0901367087	-4681.22944091
-66.3520779621	38.0798507315	-4757.64391122
-65.4222498096	38.0908718873	-4929.87009727
-79.1352908682	38.0651113559	566.160364123
-75.9829924609	38.0669794139	-4.14591533903
-75.6285585666	38.0599774812	5.42965303405
-75.499634234	38.0679772403	9.74685130443
-75.0218604556	38.0661209133	-16.3178751572
-72.7355720143	38.0635417085	-2790.67694081
-70.6766296582	38.0646084007	-3640.4219198
-68.9092849665	38.0635075402	-4014.92658744
-68.0572831799	38.0692913365	-4474.38766799
-67.5242597552	38.0637379345	-4614.52354618
-67.0807643026	38.0734791477	-4710.95223771
-66.8875012933	38.0589458216	-4631.44726388
-66.1296317885	38.0729747545	-4808.75063912
-78.6156573811	38.0547210817	216.066710683
-78.4479952224	38.043711124	123.317757643
-77.881686612	38.0520955157	114.83973177
-77.2401930677	38.0460091364	63.6174884124
-74.9763783938	38.0488930661	-20.582278832
-74.7360339066	38.0509085711	-25.2403746781
-74.0880672904	38.0561568532	-92.3657425629
-72.5626969228	38.0462731254	-2994.84713287
-70.3219542384	38.0508562867	-3687.16567859
-66.1983987625	38.0517039951	-4810.05227971
-76.7878326908	38.0379952137	44.1478784833
-75.9988782387	38.0326893609	-1.01838037931
-75.0155558488	38.033053821	-13.2681424273
-72.712902997	38.0355936047	-2821.84820693
-69.3190288196	38.0356663596	-3933.2275348
-66.1184587265	38.026001649	-4838.10144655
-65.1838291963	38.0415260177	-4940.66876961
-78.7747468347	38.0233205948	232.897824323
-78.422772906	38.0196722765	142.418133464
-75.8437366317	38.0110536423	3.72106642903
-74.6625965809	38.016674174	-31.5112629972
-71.856517624	38.0210330468	-3004.73502894
-69.9674777044	38.0197117347	-3868.28420737
-67.8260009381	38.0232561287	-4546.08009481
-67.5497849451	38.0118413661	-4644.75683899
-65.5254557736	38.0239929091	-4884.4162062
-65.4745026163	38.0122936536	-4911.66284781
-79.0151768546	38.0012382139	448.023806572
-75.4036630818	37.9984677825	0.67160526919
-73.6714853391	38.0004839543	-1110.14263639
-71.710924696	37.9933216851	-3077.77557422
-68.6196207947	38.00717902	-4226.24067912
-66.0705114985	37.996884184	-4846.64794506
-78.507128238	37.9802307691	197.878238625
-78.256927251	37.9873692151	146.476989892
-77.9416960319	37.9830013495	112.978275611
-77.8979727616	37.9872885887	138.645738218
-76.5975155517	37.976231752	29.7242650911
-71.9143931008	37.9794139806	-3008.8400161
-71.277558725	37.9875540454	-3258.60595802
-69.9832527293	37.9870152455	-3894.74974365
-69.1134381616	37.9816236477	-3983.95909942
-66.3764347818	37.9898711685	-4871.64459936
-65.3179841346	37.9771020766	-4941.0728042
-65.0082710688	37.9756775368	-4974.55900775
-78.634104512	37.9609736632	209.366572738
-75.2089961596	37.9718439896	-14.8549367735
-73.2485340504	37.9659548532	-2267.40319148
-72.9046071362	37.9670739975	-2627.86548925
-70.930375773	37.9623305071	-3420.3136547
-65.0275899326	37.9603391234	-4973.27563802
-64.6809937659	37.9584250841	-4981.87810452
-64.5963542688	37.9669737909	-5026.45076938
-79.9099646657	37.9427623581	649.994706857
-79.1700501513	37.9492370281	547.621390507
-78.8066684002	37.9488148372	209.979413521
-78.7828185404	37.9540025499	247.051391722
-76.8364953831	37.9577936921	4.27370741757
-75.090582443	37.9480874184	-18.8149975339
-73.3209381966	37.954779299	-2073.67730782
-71.1819606531	37.9573452193	-3334.64968335
-69.9372798158	37.9434830304	-3938.93492701
-69.8217183826	37.9481113087	-3946.60601041
-67.7814181539	37.9462676663	-4601.67792593
-66.2989320915	37.9533171262	-4886.78554056
-65.9774493063	37.9570967946	-4861.72316177
-65.3189312524	37.9500200841	-4943.52134828
-64.4649473505	37.9574146252	-5097.96995563
-64.1557636113	37.95375566	-5014.35113258
-79.9022943675	37.93741812	767.620454591
-77.2195282566	37.9380967784	45.2823964877
-74.702904438	37.9307524878	-37.7525547814
-74.140697849	37.9328564349	-106.626368384
-73.8296749861	37.9362852629	-1281.94096256
-71.9985958226	37.9416301232	-3056.66616034
-71.7068403474	37.9369193222	-3092.39576642
-70.9538010764	37.9250409472	-3472.65564205
-68.3356832808	37.9292666893	-4448.45045864
-64.5253228324	37.9390237909	-5078.89616869
-64.48481036	37.9412430916	-5084.36601799
-64.337658182	37.9330069683	-5009.56619974
-78.5694502138	37.9246838707	149.0069173
-77.1811052697	37.9086370635	22.5554882584
-76.5463611617	37.9093048181	41.4991375516
-75.0512089557	37.9172349888	-19.268651811
-73.8740034969	37.9168314207	-1042.09358284
-71.9150856919	37.924241798	-3027.28009188
-67.8144295755	37.9185090791	-4614.23793096
-79.5327335817	37.9037365783	840.037279302
-78.7412406498	37.903741287	423.232178271
-78.1678129054	37.8945456203	114.010525835
-77.1712950455	37.8980252165	21.3483440497
-76.7241476014	37.8962699193	17.0636432647
-76.0745974239	37.8925507757	-5.69888139109
-72.8215017956	37.9034980963	-2728.78002075
-72.4855652193	37.9080474842	-3054.63805883
-70.5640816794	37.9037115406	-3834.88580648
-70.2009484722	37.8986368309	-3881.44917024
-69.6208557885	37.9067655634	-3998.26662112
-65.3727361641	37.8975453693	-4934.80956637
-76.6530280321	37.8841187935	29.8484021013
-76.3521180136	37.890576167	27.8245208925
-75.6612394482	37.8870028872	0.250489929528
-74.4349806208	37.8909779619	-58.2593602957
-70.7945148082	37.8855430539	-3623.3077361
-70.4836986319	37.8843834493	-3860.28253898
-68.2284524982	37.876996411	-4527.92794988
-64.630178653	37.875314759	-5016.20467673
-64.5405258911	37.8844191078	-5023.55830422
-79.8122277035	37.8631405141	435.103552155
-75.6143915186	37.8666449542	10.1392107987
-74.9309745705	37.8620901089	-30.0820425579
-74.8609240553	37.8625421393	-32.2899310075
-72.9310812619	37.8681567329	-2653.16588588
-70.9622128415	37.8637462165	-3559.53921653
-69.7471493435	37.8671938273	-4019.54866967
-66.2771353136	37.8670737985	-4885.63763029
-65.6938021936	37.874467859	-4892.66367398
-79.3894812834	37.843961684	417.275790447
-70.7479881303	37.8499786574	-3704.03824446
-70.2230657964	37.8462619352	-3912.6346247
-67.2065448925	37.8566935043	-4817.3539695
-67.1890277132	37.8493375088	-4826.11362557
-65.1326412564	37.8507629465	-4950.9070349
-64.8278158832	37.8489750232	-4993.73633815
-79.449118152	37.8281257059	347.419239695
-78.1469499907	37.8282324056	93.2488465506
-77.9550934946	37.8300575483	102.785589099
-77.9306672504	37.8290077689	109.45376293
-74.8229048228	37.8310402575	-32.896595894
-74.2386308211	37.829906905	-99.0389559539
-73.7547554866	37.8302724603	-1656.5952414
-72.1297747233	37.8290748875	-3187.90478517
-71.6422525978	37.8264799359	-3194.6828159
-71.1500398475	37.8267946336	-3562.74191264
-70.924791831	37.8284804317	-3627.81943487
-70.386733304	37.8334840666	-3938.00020969
-68.3581094613	37.8336990866	-4492.35566847
-66.7760174213	37.8337639998	-4818.92284761
-64.9461321016	37.8273130524	-4993.26355274
-64.0425989554	37.8350988048	-5025.36385549
-79.7783297299	37.811088791	416.286973245
-75.1639427967	37.8101363535	-20.1202129686
-74.571351399	37.8188894521	-53.4564462302
-74.0121881785	37.8191818054	-595.285407665
-73.098805551	37.8206877987	-2502.52783365
-71.065572198	37.8194162938	-3615.33797306
-70.8631842839	37.8188537526	-3683.54475069
-70.2530138298	37.8103776331	-3947.32913598
-68.6432551093	37.808658095	-4350.77413585
-68.3430174088	37.8183580916	-4512.28290985
-68.0419617985	37.8150704148	-4607.32370316
-78.0541467434	37.8008645046	88.2684052133
-77.7501366799	37.8077962528	86.6976942484
-74.7152536487	37.7993495445	-43.1057756716
-72.0017382316	37.8043874334	-3102.19217399
-71.3071497862	37.8012728932	-3487.23785509
-70.7110197501	37.8012039195	-3807.67136675
-70.4563051865	37.8038609716	-3939.02942443
-69.3812712232	37.8036659974	-4077.88934255
-68.9349635266	37.8048969786	-4175.56880188
-68.7651448048	37.8071568104	-4276.13342274
-67.6603609117	37.801246995	-4653.10109132
-67.0988955363	37.8050640876	-4753.48833909
-66.6796929551	37.8032433334	-4880.84124634
-79.3427715745	37.7830456215	334.178650062
-79.2563636672	37.7772139403	648.212329361
-77.8071409528	37.7803270015	80.7862194848
-76.9971829415	37.7758510019	43.0135691856
-75.9827886056	37.7782206851	-8.59867049729
-74.0282536047	37.7817687112	-1139.28289176
-73.787431267	37.7788198571	-1610.94430573
-71.325001042	37.783909494	-3484.02883128
-70.810508992	37.777039321	-3763.44348234
-69.7143781361	37.7849370706	-4097.2143006
-68.2480542158	37.7757852728	-4594.56346243
-66.9662347152	37.7774888034	-4835.09593745
-65.8228271314	37.7794504146	-4904.76638777
-65.6349104278	37.7837874609	-4907.81786233
-64.8473250497	37.7792334611	-5010.65994908
-79.1504468467	37.7727717067	861.446834248
-78.9365055184	37.7656902428	318.843846573
-77.372174001	37.7599226291	36.5997376105
-73.1450020415	37.7727420683	-2576.18314995
-71.9051748402	37.7713845874	-3068.381639
-70.3203839093	37.7656137067	-3985.33306229
-68.8325297035	37.7637941892	-4276.06553069
-68.5638043604	37.760846706	-4446.43686774
-64.5481722581	37.7587925101	-5003.72214436
-77.5113663885	37.7575617674	77.2370557661
-77.2698665323	37.7428342866	32.7024401036
-76.7302540823	37.7416731062	37.2523416819
-75.5754779333	37.742528757	-1.00463233288
-75.4987250397	37.7446985709	-11.7125826256
-74.3693552736	37.7507993261	-69.4181259698
-71.1210558224	37.7487074303	-3720.83541503
-70.0552234603	37.745816199	-4015.55381845
-68.2243632023	37.7437059301	-4613.57155469
-68.0326496978	37.7510081212	-4645.51182079
-65.8945537591	37.7564962338	-4921.24528593
-64.319457099	37.7543947602	-5020.08075277
-79.4153886435	37.7316722291	356.677457049
-77.6032838661	37.7293260636	80.1037522657
-77.3181696745	37.737230962	15.3610292996
-76.3188247515	37.7307990211	-2.8376067682
-75.180100774	37.7412536832	-23.1181635807
-71.5720515435	37.7402987982	-3312.10039564
-69.4274302746	37.7401136513	-4123.68316724
-67.772347303	37.7280446197	-4737.13756677
-67.1607074231	37.7374822179	-4840.9731619
-65.1776782131	37.7333928178	-4977.28850489
-77.3198509874	37.7232648152	28.803085996
-76.7748904139	37.723171966	34.8382341094
-75.7761140744	37.7101735117	0.592964222053
-73.6491111189	37.7228854949	-1981.26999571
-72.7239387523	37.7196583877	-2873.42017458
-69.3717394347	37.7228521275	-4121.39613845
-68.4368753975	37.7202236148	-4542.10710559
-67.6294881048	37.7175076658	-4719.4629709
-65.3924166492	37.7193179409	-4950.36865811
-64.8457966004	37.7231898437	-4985.48408304
-64.4295362534	37.714016361	-5018.2122424
-77.3536036226	37.6972193735	54.4241977527
-76.4010087011	37.7032259981	27.5390485158
-75.8631664793	37.696506502	-0.595778083762
-75.6394994239	37.702891724	4.46063951183
-74.8559253341	37.7035881522	-31.4656449151
-71.0868822667	37.7027736174	-3821.75667614
-69.3436585988	37.706037836	-4126.71830944
-69.2349617729	37.7001559826	-4142.58961647
-68.1967027579	37.7063120733	-4639.05756423
-67.1851495221	37.6957878935	-4872.47080879
-66.3805596542	37.7001808713	-4934.92499319
-65.3849181986	37.6980466562	-4949.98230188
-79.0636546756	37.6863606813	230.352808102
-78.3264679081	37.6772670502	116.452368611
